61

0.012864861242989389 0.007427576775916004 1 1 1 
0.01384150475691579 0.013865141342232252 1 1 1 
0.014020893974871154 0.020000020405511708 1 1 1 
0.013841556594788406 0.026134893565583187 1 1 1 
0.012864911496510244 0.03257244523178185 1 1 1 
0.018928306461338484 0.00505461469667802 0.1464690010671327 0.41737556804210685 0.7344560764417114 
0.01942344733267013 0.011214117037821106 0.608243477973692 0.22005206833125712 0.41160145402310955 
0.01965180131207797 0.017097985313439697 1 1 1 
0.019651782893846892 0.02290199170444019 1 1 1 
0.019423360764825693 0.02878591974238128 1 1 1 
0.018928246815450734 0.03494548920004337 0.5113746445361733 0.4803537979281256 0.4990963896247953 
0.024330636820827093 0.0021420748540112947 0.1464690010671327 0.41737556804210685 0.7344560764417114 
0.024633520462598188 0.008469894431194043 0.608243477973692 0.22005206833125712 0.41160145402310955 
0.024687842091623936 0.01425322788387057 1 1 1 
0.02470787378869231 0.01999975916388017 1 1 1 
0.024687504539744567 0.025746597771971576 1 1 1 
0.024633111992051183 0.031530120872333325 0.5113746445361733 0.4803537979281256 0.4990963896247953 
0.02433094617091176 0.03785754704210749 1 1 1 
0.029554733213127984 -0.0010800283247587496 1 1 1 
0.029660347840655982 0.005567913704129513 1 1 1 
0.029674869419549974 0.011397065053809254 1 1 1 
0.02966420563167766 0.017125755646926262 1 1 1 
0.029663878496963246 0.022873390480115253 1 1 1 
0.029674343822218303 0.028602555966570162 1 1 1 
0.02965956957137291 0.03443214823828711 1 1 1 
0.02955422192874991 0.04108032451494293 1 1 1 
0.03464231842779977 -0.005143854211378557 1 1 1 
0.0346419537119381 0.0024282147459251066 1 1 1 
0.03464160049186514 0.008506331230849342 1 1 1 
0.03464204024324528 0.014251882850497204 1 1 1 
0.034642109495652454 0.019999213100847252 1 1 1 
0.034641436446472544 0.025747089308793908 1 1 1 
0.034641133356218524 0.03149322275942907 1 1 1 
0.03464098749947413 0.0375718321380547 1 1 1 
0.0346409947080315 0.04514489642278043 1 1 1 
0.039729413373784536 -0.0010802084823218038 1 1 1 
0.03962279076770091 0.005567609586596035 1 1 1 
0.039608831979311504 0.011396693994505835 1 1 1 
0.03962035685127066 0.017124836710971807 1 1 1 
0.039619458892761306 0.02287277386830981 1 1 1 
0.039608175447320496 0.028602079795012118 1 1 1 
0.039622482702547576 0.03443198708572402 1 1 1 
0.03972775552433592 0.04108032273373555 1 1 1 
0.04495154407545556 0.002142204498967082 1 1 1 
0.04465031025981585 0.00846881014938386 0.2200287785059576 0.39837730085705947 0.4528125024032369 
0.04459666110827843 0.014250608587812174 1 1 1 
0.044575528657505546 0.01999781367466138 1 1 1 
0.04459507198989121 0.02574522465812629 1 1 1 
0.04464904727909831 0.031529509533423615 1 1 1 
0.044951088148348355 0.037857509833482496 1 1 1 
0.05035817831382303 0.00504954917159065 1 1 1 
0.049862177427972575 0.011208529404600197 0.2200287785059576 0.39837730085705947 0.4528125024032369 
0.04963108767439073 0.01709391260070848 1 1 1 
0.04963008091501075 0.022898883030159658 1 1 1 
0.049858398347413124 0.02878409196144712 1 1 1 
0.05035465711524001 0.03494599056965482 1 1 1 
0.056422658268545325 0.007430536078431332 1 1 1 
0.055439995690806515 0.013866786575912338 1 1 1 
0.055260593540885326 0.020000475191617517 1 1 1 
0.05544024712453061 0.026134851261470297 1 1 1 
0.056417201399427776 0.0325725106683139 1 1 1 
