61

0.012659619941846237 0.0073090776671648795 1 1 1 
0.013668285521211543 0.013813815737600613 1 1 1 
0.013853269218829206 0.02000001959541582 1 1 1 
0.013668337209524284 0.026186218270118224 1 1 1 
0.012659668744650127 0.03269094195613023 1 1 1 
0.018797235424105135 0.004930254369401905 0.5342226787256084 0.354168753801107 0.3810589092925063 
0.01932616551632057 0.011157977851284575 0.5327749427536087 0.3133279316810488 0.7092506949622458 
0.01958063498794179 0.017075036010128237 1 1 1 
0.019580629890518973 0.02292496819336268 1 1 1 
0.019326120891293923 0.028842064409832373 1 1 1 
0.01879725383273414 0.035069779568473014 0.40804383147645407 0.6721611677695054 0.43591295835742105 
0.02424694324500296 0.0019970468249214755 0.5342226787256084 0.354168753801107 0.3810589092925063 
0.02457799994874761 0.00841979430711088 0.5327749427536087 0.3133279316810488 0.7092506949622458 
0.02465663414695772 0.014235274222309822 1 1 1 
0.02468285680487835 0.01999979204062777 1 1 1 
0.024656322304572504 0.025764616982087304 1 1 1 
0.024577662692822046 0.03158024488248746 0.40804383147645407 0.6721611677695054 0.43591295835742105 
0.024247137631289706 0.03800270987830335 1 1 1 
0.029512488487118398 -0.0012557721828118822 1 1 1 
0.029644636175775813 0.005494873805010646 1 1 1 
0.029662371800981427 0.011375494363892623 1 1 1 
0.02964545673362779 0.017114924418605845 1 1 1 
0.02964504670193242 0.02288426181248052 1 1 1 
0.029661821253931377 0.028624226575619246 1 1 1 
0.029643881245528615 0.034505234280100036 1 1 1 
0.02951206437652308 0.04125599500890381 1 1 1 
0.03464219329430465 -0.005380973794506018 1 1 1 
0.034641999125174204 0.0023160292049020123 1 1 1 
0.034641643172758044 0.008470444107476955 1 1 1 
0.03464208680648319 0.014230190201755545 1 1 1 
0.034642005677130105 0.01999923433772121 1 1 1 
0.03464137222768885 0.02576880369021383 1 1 1 
0.034641090524450614 0.031529248176166993 1 1 1 
0.034640982103751654 0.0376841241755674 1 1 1 
0.03464099700327998 0.045381889139897574 1 1 1 
0.0397717124517093 -0.0012556716227870286 1 1 1 
0.03963845922828051 0.005494623945148304 1 1 1 
0.03962139926726952 0.011375051048405818 1 1 1 
0.039639024130116815 0.017114039153488782 1 1 1 
0.039638113830945974 0.022883651269091605 1 1 1 
0.0396205836652995 0.0286237929608576 1 1 1 
0.03963813666768647 0.03450512049035506 1 1 1 
0.03976991740100117 0.04125600023994342 1 1 1 
0.04503527494937175 0.001997146530809547 1 1 1 
0.044705859487019786 0.0084185746595657 0.2173140256549202 0.5217117943105072 0.5950047286353922 
0.04462781629693424 0.014232620054881512 1 1 1 
0.044600391897461206 0.019997891797077127 1 1 1 
0.04462615169018878 0.025763321829565304 1 1 1 
0.04470444681189046 0.03157975719459077 1 1 1 
0.04503488937590083 0.03800271234650968 1 1 1 
0.050489434899442714 0.004924621629261325 1 1 1 
0.0499596020025828 0.011152175074041228 0.2173140256549202 0.5217117943105072 0.5950047286353922 
0.04970209692631427 0.0170708903879154 1 1 1 
0.049701202652021874 0.022921913193836244 1 1 1 
0.049955636916875656 0.02884041065835546 1 1 1 
0.05048538529063038 0.03507012536669442 1 1 1 
0.05662788925461322 0.00731214390537367 1 1 1 
0.05561305247232602 0.013815346413000643 1 1 1 
0.05542825736765378 0.020000391025002784 1 1 1 
0.0556135145349343 0.026186178116659485 1 1 1 
0.05662240205990278 0.032690988116378314 1 1 1 
