61

0.012946817432740091 0.007474895351645591 1 1 1 
0.013907807487809853 0.013886067825524177 1 1 1 
0.01408442015425912 0.020000020597575885 1 1 1 
0.013907858611050651 0.02611396713399726 1 1 1 
0.012946867850284054 0.03252512762550695 1 1 1 
0.018979586206139116 0.005101576447999503 0.5612235375323585 0.33679347854149655 0.5419953083132517 
0.01945962713910752 0.011234992338378645 0.6725398363817929 0.19538947225482994 0.569100605586018 
0.019675527726164634 0.01710676973336096 1 1 1 
0.01967550316998947 0.022893193711435764 1 1 1 
0.0194595206498004 0.028765041389789595 1 1 1 
0.01897947206488315 0.03489857749858141 0.7299252743528534 0.16451229108050971 0.5012885877242274 
0.024362356820400746 0.002197034680632725 0.5612235375323585 0.33679347854149655 0.5419953083132517 
0.024653016863332447 0.008486019312779708 0.6725398363817929 0.19538947225482994 0.569100605586018 
0.024699361531778628 0.01425985155779379 1 1 1 
0.024718034110494648 0.01999974714617294 1 1 1 
0.024699017972447567 0.025739943722506386 1 1 1 
0.024652579788841174 0.03151398051158911 0.7299252743528534 0.16451229108050971 0.5012885877242274 
0.024362707131489362 0.037802534165755304 1 1 1 
0.02956979626487428 -0.0010121156483032167 1 1 1 
0.029664592940158916 0.0055928172209150535 1 1 1 
0.029679942791173787 0.011405827902758838 1 1 1 
0.029673175525427472 0.017130941662656468 1 1 1 
0.029672887113952884 0.022868192447292924 1 1 1 
0.029679432837905226 0.02859375094212466 1 1 1 
0.0296638162877662 0.034407216437002376 1 1 1 
0.029569248635749612 0.04101244413986822 1 1 1 
0.03464236915973942 -0.0050491671087844305 1 1 1 
0.03464192963476555 0.0024699194998540567 1 1 1 
0.034641584499433845 0.008519575413231296 1 1 1 
0.03464201889004916 0.014262262302841893 1 1 1 
0.034642151218790225 0.019999207403726613 1 1 1 
0.034641464122816906 0.025736702834661427 1 1 1 
0.034641153218163474 0.03147992056621383 1 1 1 
0.03464099088582971 0.0375300734067541 1 1 1 
0.034640993706488855 0.045050261707597544 1 1 1 
0.039714319416724056 -0.0010124181347663328 1 1 1 
0.039618564474056255 0.005592500514248197 1 1 1 
0.0396037263030223 0.011405476834231208 1 1 1 
0.039611410635713606 0.017130009875679614 1 1 1 
0.039610524469726 0.022867573127430298 1 1 1 
0.039603136898744756 0.028593259969359956 1 1 1 
0.0396182545087483 0.03440703365255552 1 1 1 
0.03971272734638331 0.041012438518533145 1 1 1 
0.0449198264670746 0.0021971837306207368 1 1 1 
0.044630804063270024 0.008484976741602951 0.3974756348441876 0.28408770978424713 0.3933959875506555 
0.04458515968639638 0.014257254990169615 1 1 1 
0.0445654295533652 0.019997783024712373 1 1 1 
0.04458360362996676 0.025738545399060692 1 1 1 
0.04462960688617672 0.031513318064232444 1 1 1 
0.044919332006233395 0.037802474737386564 1 1 1 
0.05030683993287056 0.005096725084698087 1 1 1 
0.04982592511017732 0.011229509075184321 0.3974756348441876 0.28408770978424713 0.3933959875506555 
0.049607430193320305 0.01710273884841208 1 1 1 
0.04960638124769289 0.022890078214780462 1 1 1 
0.0498222601085567 0.02876316880429092 1 1 1 
0.05030354808595097 0.034899146084708614 1 1 1 
0.056340714773123794 0.007477791383505745 1 1 1 
0.055373772203958886 0.013887756773862397 1 1 1 
0.055197055409426515 0.020000513061618194 1 1 1 
0.05537392469762475 0.026113925695799727 1 1 1 
0.05633527876700181 0.03252521139195206 1 1 1 
