61

0.01272930912839198 0.0073493137623236535 1 1 1 
0.013728135421429904 0.013831095243767142 1 1 1 
0.013911394909113375 0.020000019909808646 1 1 1 
0.013728187410933257 0.026168939166389876 1 1 1 
0.012729358538255985 0.03265070664540406 1 1 1 
0.01884212871619355 0.004973449556498808 0.6586270867935243 0.6388122740932395 0.1868299009659155 
0.019360212243690236 0.011177626675442972 0.6779625274386588 0.5037447724961013 0.5789111639554433 
0.019606602947734416 0.017082940937186496 1 1 1 
0.019606593657296882 0.022917055039481143 1 1 1 
0.019360154589153404 0.028822414078052586 1 1 1 
0.018842129443463296 0.03502659987640515 0.6337034950994869 0.7474798999451037 0.5227464521987977 
0.024275964286567392 0.0020473378361399596 0.6586270867935243 0.6388122740932395 0.1868299009659155 
0.02459785071738361 0.008438314121126455 0.6779625274386588 0.5037447724961013 0.5789111639554433 
0.024667659083155328 0.01424161825803148 1 1 1 
0.02469138519035216 0.019999780549564066 1 1 1 
0.024667337054403826 0.025758252302968413 1 1 1 
0.02459748949698855 0.031561718963859814 0.6337034950994869 0.7474798999451037 0.5227464521987977 
0.024276199361108766 0.037952372829581874 1 1 1 
0.029527477073948122 -0.0011952784511658214 1 1 1 
0.029650779514968677 0.005521296107134305 1 1 1 
0.029666633350865716 0.011382847663643085 1 1 1 
0.02965124351902819 0.017118265755703715 1 1 1 
0.02965085932866409 0.02288090533089554 1 1 1 
0.02966608903533916 0.028616840412774396 1 1 1 
0.029650012899330752 0.034478799772444196 1 1 1 
0.0295270241176653 0.04119552496878095 1 1 1 
0.03464223531226199 -0.005300461132922144 1 1 1 
0.03464198615969452 0.0023552987604164802 1 1 1 
0.034641628521702564 0.008483123618950468 1 1 1 
0.03464207212584882 0.014236884819664663 1 1 1 
0.03464204073819406 0.01999922604855135 1 1 1 
0.03464139330734768 0.025762100953520172 1 1 1 
0.034641104017879974 0.031516522933486876 1 1 1 
0.03464098351740808 0.03764482280105522 1 1 1 
0.03464099625774541 0.04530141872729689 1 1 1 
0.03975670901192866 -0.001195269046953524 1 1 1 
0.0396323296966303 0.0055210245648090826 1 1 1 
0.039617115766809256 0.011382431939574653 1 1 1 
0.03963326837182624 0.01711736892040005 1 1 1 
0.039632359840567156 0.02288029274356374 1 1 1 
0.03961635280342476 0.02861639156638564 1 1 1 
0.039632015003124264 0.0344786709661326 1 1 1 
0.039754956131815115 0.04119552817192439 1 1 1 
0.045006234902529856 0.002047444852143296 1 1 1 
0.044685998161988295 0.008437144878650238 0.27684653542341536 0.32260384977749046 0.31168368190440787 
0.0446168104322825 0.014238972661978681 1 1 1 
0.044591915508906274 0.019997865028939483 1 1 1 
0.04461517011034384 0.02575692847138133 1 1 1 
0.044684634364574996 0.0315611902915449 1 1 1 
0.0450058295020098 0.03795236400407965 1 1 1 
0.05044447270720178 0.004968013898716513 1 1 1 
0.049925512909351356 0.011171890297325049 0.27684653542341536 0.32260384977749046 0.31168368190440787 
0.04967617979603379 0.017078815326822604 1 1 1 
0.049675246546343976 0.022913976524614674 1 1 1 
0.049921595802980466 0.028820692647550075 1 1 1 
0.05044059533411419 0.03502699625740748 1 1 1 
0.056558200263578086 0.00735235140824759 1 1 1 
0.055553252413575664 0.013832665301995391 1 1 1 
0.055370117258965824 0.020000417981637757 1 1 1 
0.05555364857537694 0.026168897724607443 1 1 1 
0.05655272029774696 0.03265075525857651 1 1 1 
