61

0.01297897107559384 0.007493459703404382 1 1 1 
0.013933296354352672 0.013894360642982542 1 1 1 
0.014108706347659468 0.020000020643085075 1 1 1 
0.013933347036023558 0.02610567427062067 1 1 1 
0.012979021453284932 0.03250656364091616 1 1 1 
0.018999514693634957 0.0051195062079636144 0.43674788123980823 0.7226878776732726 0.7188561081390791 
0.019473371602695248 0.01124292211205783 0.3287759026222521 0.6199999520834977 0.5132034283265057 
0.019684060496955952 0.017110131399353388 1 1 1 
0.01968403340822393 0.022889826246130496 1 1 1 
0.01947325677143918 0.02875711030227148 1 1 1 
0.018999375198251487 0.03488067121308129 0.25388886921346404 0.1283898233282701 0.5522004480399031 
0.024374483862747997 0.0022180454269231493 0.43674788123980823 0.7226878776732726 0.7188561081390791 
0.02466020463593781 0.008491714622505279 0.3287759026222521 0.6199999520834977 0.5132034283265057 
0.02470376490770713 0.014262383021146232 1 1 1 
0.024722106690905295 0.019999742675368803 1 1 1 
0.024703419806284172 0.025737399646063634 1 1 1 
0.024659756404045448 0.031508277969189286 0.25388886921346404 0.1283898233282701 0.5522004480399031 
0.024374849262379282 0.03778150275093417 1 1 1 
0.029575372471561574 -0.0009858833544674455 1 1 1 
0.029665941674781066 0.005601871631431871 1 1 1 
0.029681976083143033 0.011409341033996729 1 1 1 
0.02967693054282018 0.017133113164988122 1 1 1 
0.029676658166481514 0.022866016894655235 1 1 1 
0.02968147316838392 0.02859022100275029 1 1 1 
0.02966516774441037 0.03439814909100425 1 1 1 
0.029574810440657618 0.040986224965339255 1 1 1 
0.03464238906885689 -0.005012018676042235 1 1 1 
0.034641919324027666 0.002485759659647589 1 1 1 
0.03464157854294378 0.008524638010305003 1 1 1 
0.034642010096791694 0.014266607391678404 1 1 1 
0.03464216757132489 0.01999920562499552 1 1 1 
0.03464147536033803 0.02573235519564753 1 1 1 
0.034641161475916935 0.03147483482916869 1 1 1 
0.03464099245665191 0.03751421014754317 1 1 1 
0.034640993300489815 0.04501313400123973 1 1 1 
0.03970872960869138 -0.000986235367966661 1 1 1 
0.03961722319369529 0.005601551605642376 1 1 1 
0.039601679594161505 0.011408996138917715 1 1 1 
0.03960766335556376 0.017132176482200168 1 1 1 
0.039606783101394254 0.022865396414792964 1 1 1 
0.039601117131065906 0.028589724619679204 1 1 1 
0.039616911228002226 0.03439795738485381 1 1 1 
0.039707165035925585 0.04098621763187374 1 1 1 
0.0449077034203098 0.00221820332083389 1 1 1 
0.04462361263452537 0.008490686194106948 0.13448582441823792 0.7054437310782499 0.10904522120754037 
0.044580762850140954 0.014259796895893458 1 1 1 
0.044561380797258875 0.01999777108551849 1 1 1 
0.04457922013892388 0.025735992450059766 1 1 1 
0.04462244251360646 0.031507595406843725 1 1 1 
0.04490719214984522 0.03778143336390582 1 1 1 
0.050286891051923306 0.005114736663214567 1 1 1 
0.04981214973122828 0.011237483148144925 0.13448582441823792 0.7054437310782499 0.10904522120754037 
0.049598925418995965 0.01710611913805547 1 1 1 
0.049597860532985365 0.022886710724806563 1 1 1 
0.04980853616051221 0.028755224830523465 1 1 1 
0.05028369214470278 0.03488126685026525 1 1 1 
0.05630856753435499 0.007496327360780654 1 1 1 
0.055348316953320965 0.013896066196050098 1 1 1 
0.055172765306676176 0.020000528634572426 1 1 1 
0.05534842811580623 0.026105633532057956 1 1 1 
0.056303141377179455 0.03250665636815347 1 1 1 
