61

0.012994909261206056 0.007502661832707796 1 1 1 
0.013945813643926787 0.013898490067534226 1 1 1 
0.014120600742169687 0.020000020658379226 1 1 1 
0.013945864068794459 0.026101544807515493 1 1 1 
0.01299495959268717 0.03249736168874579 1 1 1 
0.019009350667830945 0.0051282828901488995 0.5879718041638574 0.614266441800562 0.6090385199228735 
0.019480087316843506 0.011246796558852664 0.5180209376887838 0.4532627027765581 0.15639570654975618 
0.01968812437345192 0.01711177752780019 1 1 1 
0.019688096003922587 0.022888177139560626 1 1 1 
0.019479968238463426 0.02875323518342006 1 1 1 
0.019009197741804266 0.03487190700741254 0.55665678170799 0.493688034238724 0.4718051278734209 
0.024380423296098293 0.0022283355218575326 0.5879718041638574 0.614266441800562 0.6090385199228735 
0.024663667168646233 0.008494403983631658 0.5180209376887838 0.4532627027765581 0.15639570654975618 
0.02470592626004659 0.014263625470517296 1 1 1 
0.024724148660319294 0.0199997405166765 1 1 1 
0.0247055805780616 0.025736150795663396 1 1 1 
0.024663213427919235 0.031505584758659354 0.55665678170799 0.493688034238724 0.4718051278734209 
0.024380795949338854 0.03777120244202473 1 1 1 
0.029578061641469845 -0.0009729724138201474 1 1 1 
0.029666544374427062 0.005606205790435892 1 1 1 
0.029682995516743263 0.011411102672991063 1 1 1 
0.029678840994760817 0.01713421806432258 1 1 1 
0.029678576739649118 0.022864910129648097 1 1 1 
0.029682496279560534 0.028588450986122706 1 1 1 
0.029665772264885915 0.034393808107911684 1 1 1 
0.029577492452504257 0.04097332061712036 1 1 1 
0.03464239892640433 -0.004993604621439821 1 1 1 
0.03464191404062736 0.002493498650797569 1 1 1 
0.03464157567011406 0.008527122948186427 1 1 1 
0.034642005652648945 0.014268818040557145 1 1 1 
0.034642175667215475 0.01999920484065143 1 1 1 
0.03464148101665771 0.025730143319530083 1 1 1 
0.03464116566983839 0.031472338344849214 1 1 1 
0.0346409932911103 0.03750645929407498 1 1 1 
0.03464099309658286 0.0449947302459249 1 1 1 
0.039706033386192094 -0.000973349288407526 1 1 1 
0.03961662418711663 0.005605884472990174 1 1 1 
0.039600653352507384 0.011410760464693909 1 1 1 
0.039605756399029766 0.017133278989001556 1 1 1 
0.039604879365404036 0.022864289050291427 1 1 1 
0.03960010437380786 0.02858795200862571 1 1 1 
0.03961631096614869 0.0343936118880463 1 1 1 
0.03970448279213348 0.04097331238741955 1 1 1 
0.04490176664003773 0.0022284980616096178 1 1 1 
0.04462014832326783 0.008493382075751977 0.5908150537557699 0.3252563564565817 0.6065663505407277 
0.044578604621680853 0.014261044853301263 1 1 1 
0.04455935058208508 0.019997765187335367 1 1 1 
0.04457706860007669 0.02573473942225808 1 1 1 
0.04461899190237657 0.0315048922338596 1 1 1 
0.044901246679531034 0.03777112783431117 1 1 1 
0.050277045535305265 0.005123553416181034 1 1 1 
0.049805418175110285 0.011241380299802097 0.5908150537557699 0.3252563564565817 0.6065663505407277 
0.049594875616336284 0.0171077749839218 1 1 1 
0.04959380297250359 0.022885062198213128 1 1 1 
0.0498018315344603 0.02875134438764515 1 1 1 
0.05027389332319904 0.034872516185954106 1 1 1 
0.05629263282936456 0.00750551464864485 1 1 1 
0.05533581688281926 0.01390020371234721 1 1 1 
0.055160869159565376 0.020000536507832505 1 1 1 
0.05533590701395955 0.026101504500674295 1 1 1 
0.056287211933446726 0.03249745923861893 1 1 1 
