61

0.012831470166983992 0.007408297951270989 1 1 1 
0.013813982513739921 0.013856694295587392 1 1 1 
0.013994399557163716 0.02000002030107756 1 1 1 
0.013814034495322364 0.02614334053158 1 1 1 
0.012831520266888287 0.03259172365727931 1 1 1 
0.018907227843621536 0.005035001305600926 0.3019590905839522 0.6961686030443274 0.15718857132642525 
0.019408252061474094 0.011205348945447287 0.5501524286511048 0.14173497593924517 0.372937890630069 
0.01964134147495566 0.01709433074142562 1 1 1 
0.019641325424478884 0.022905651333581148 1 1 1 
0.019408173071828093 0.028794688942094145 1 1 1 
0.0189071864030781 0.034965086025127615 0.4646184155822163 0.4373597860330317 0.5337488243753411 
0.024317407973154483 0.0021191526472162515 0.3019590905839522 0.6961686030443274 0.15718857132642525 
0.024625115204924344 0.00846267428941081 0.5501524286511048 0.14173497593924517 0.372937890630069 
0.02468301124781992 0.014250449605254848 1 1 1 
0.024703795511991734 0.01999976428077812 1 1 1 
0.02468267692337165 0.025749387715658684 1 1 1 
0.024624718410559278 0.031537346222567014 0.4646184155822163 0.4373597860330317 0.5337488243753411 
0.024317699713636357 0.0378804910053933 1 1 1 
0.029548273447923115 -0.0011080985434585564 1 1 1 
0.029658285044359568 0.005557041026221297 1 1 1 
0.029672832670415598 0.011393548269845347 1 1 1 
0.029660797914537133 0.01712378599561753 1 1 1 
0.029660455905481914 0.022875365705722517 1 1 1 
0.029672301640090253 0.028606089611870077 1 1 1 
0.029657508113978208 0.03444303066289915 1 1 1 
0.02954777676843295 0.04110838205800636 1 1 1 
0.034642297826258286 -0.005182432018101624 1 1 1 
0.0346419625762532 0.002410695778100979 1 1 1 
0.03464160726537877 0.008500776850392527 1 1 1 
0.034642048499026745 0.014247939709871467 1 1 1 
0.03464209251116351 0.01999921588997288 1 1 1 
0.03464142553444674 0.025751035554828366 1 1 1 
0.03464112573428552 0.03149880035205579 1 1 1 
0.03464098634726743 0.03758937114327855 1 1 1 
0.03464099510214503 0.045183453120840704 1 1 1 
0.039735884197591505 -0.0011082305119553928 1 1 1 
0.03962484607276476 0.00555674364421574 1 1 1 
0.03961088112794612 0.011393167453599796 1 1 1 
0.039623753375122125 0.017122872424631053 1 1 1 
0.039622851848005215 0.02287475011962936 1 1 1 
0.03961019786107455 0.028605619860850463 1 1 1 
0.03962453748334649 0.03444287787123344 1 1 1 
0.039734201341135034 0.04110838164905365 1 1 1 
0.04496477497444475 0.002119275646967254 1 1 1 
0.04465871973847578 0.008461570827566352 0.7959703492505769 0.22893954881181017 0.5807432373983182 
0.04460148408789613 0.014247822575393306 1 1 1 
0.04457958187280772 0.019997826246840156 1 1 1 
0.04459988192354422 0.02574802589584847 1 1 1 
0.044657431092227334 0.03153675552847099 1 1 1 
0.04496433299902539 0.037880461677209445 1 1 1 
0.05037928345482855 0.005029846353566695 1 1 1 
0.04987739967100188 0.011199722062764542 0.7959703492505769 0.22893954881181017 0.5807432373983182 
0.04964152043713979 0.01709024318846446 1 1 1 
0.049640531415200105 0.022902548024525123 1 1 1 
0.04987358088511032 0.028792883900495825 1 1 1 
0.05037567187197103 0.03496556077860456 1 1 1 
0.05645604562133654 0.007411279484605714 1 1 1 
0.05546748815084108 0.013858321271597867 1 1 1 
0.05528709353294852 0.02000046048830502 1 1 1 
0.05546777735789782 0.02614329820314955 1 1 1 
0.05645058183735839 0.03259178342451085 1 1 1 
