61

0.012746537556061664 0.007359260852038777 1 1 1 
0.013742776533904323 0.013835388477211058 1 1 1 
0.013925585129829656 0.020000019982278974 1 1 1 
0.013742828562730822 0.026164646019075977 1 1 1 
0.012746587101351627 0.032640759754623154 1 1 1 
0.018853168317201456 0.004983983399057191 0.6200329011518054 0.22234339491649252 0.3718480375420945 
0.019368472795369875 0.011182393772807608 0.6949442738949325 0.10674429766776583 0.4529372161675793 
0.019612743682829923 0.017084880444687953 1 1 1 
0.019612733303616115 0.02291511334629407 1 1 1 
0.01936841173317499 0.02881764655280226 1 1 1 
0.018853163318235007 0.03501607112496042 0.6149255214461059 0.7645390193320417 0.660896483235825 
0.024283049271739954 0.0020596152318951674 0.6200329011518054 0.22234339491649252 0.3718480375420945 
0.024602605984557244 0.008442657884036926 0.6949442738949325 0.10674429766776583 0.4529372161675793 
0.024670312701679905 0.014243144982421841 1 1 1 
0.024693479573389628 0.019999777751046326 1 1 1 
0.02466998836470059 0.025756720225689016 1 1 1 
0.02460223879329095 0.03155737340434644 0.6149255214461059 0.7645390193320417 0.660896483235825 
0.024283294169492004 0.0379400840896515 1 1 1 
0.02953108663123248 -0.0011804465614793519 1 1 1 
0.029652170904790578 0.005527578649423415 1 1 1 
0.02966767971798202 0.0113846534532298 1 1 1 
0.029652764094090688 0.017119144044080655 1 1 1 
0.029652386661449787 0.022880023533661756 1 1 1 
0.029667137293747543 0.028615026318160243 1 1 1 
0.029651401945158008 0.03447251370422118 1 1 1 
0.029530626414269203 0.041180699128941185 1 1 1 
0.03464224578656123 -0.005280556821133551 1 1 1 
0.0346419825617391 0.0023648254770490752 1 1 1 
0.034641624902889315 0.008486175198202748 1 1 1 
0.03464206831570599 0.014238644094484703 1 1 1 
0.03464204944215013 0.019999224166936964 1 1 1 
0.03464139862707413 0.025760339794012314 1 1 1 
0.0346411075154859 0.03151345984457243 1 1 1 
0.03464098392741385 0.037635287552554623 1 1 1 
0.03464099606813528 0.045281525001096036 1 1 1 
0.03975309522051599 -0.0011804603537760312 1 1 1 
0.039630941874245706 0.005527302229330005 1 1 1 
0.039616063711823565 0.011384244108142916 1 1 1 
0.03963175496344582 0.017118244361170216 1 1 1 
0.03963084722731133 0.0228794104470463 1 1 1 
0.03961531397292855 0.028614573821505073 1 1 1 
0.03963062867328469 0.03447238101930358 1 1 1 
0.03975135346392189 0.04118070177962099 1 1 1 
0.0449991461752063 0.002059724495502113 1 1 1 
0.04468124042502876 0.008441500441819091 0.49844022239522234 0.3388338446343899 0.635038130843802 
0.04461416134893971 0.014240502001184277 1 1 1 
0.044589834035903005 0.019997858452973867 1 1 1 
0.04461252726090358 0.025755389639212985 1 1 1 
0.04467988898352982 0.03155683441844312 1 1 1 
0.04499873524134778 0.03794007215633446 1 1 1 
0.050433416984250926 0.004978595790865695 1 1 1 
0.04991724092757227 0.011176674803908278 0.49844022239522234 0.3388338446343899 0.635038130843802 
0.0496700520237116 0.017080760505633213 1 1 1 
0.04966910923614301 0.022912029812130218 1 1 1 
0.04991333802168618 0.028815909648167527 1 1 1 
0.05042958331402066 0.03501648038273898 1 1 1 
0.05654097239794119 0.007362290248369059 1 1 1 
0.05553862443044881 0.013836968218870923 1 1 1 
0.05535592363284869 0.020000424895474645 1 1 1 
0.05553900343758652 0.026164604337217966 1 1 1 
0.056535494671948204 0.03264080960909608 1 1 1 
