61

0.012677156726773544 0.007319202792844097 1 1 1 
0.013683437988161757 0.013818151600043082 1 1 1 
0.01386800185440091 0.020000019677437066 1 1 1 
0.013683489772282717 0.02618188251648365 1 1 1 
0.012677205690317361 0.03268081702457769 1 1 1 
0.018808567566813233 0.004941209692266471 0.7482962361080522 0.5703941517539394 0.40303184200992526 
0.019334827147970295 0.011162976701411111 0.6586569104081592 0.4647912353917981 0.7177486080487794 
0.01958733757445626 0.017077033216898 1 1 1 
0.019587331453643452 0.022922969006588963 1 1 1 
0.019334779356001086 0.028837065213326067 1 1 1 
0.018808582339112957 0.03505882739119087 0.339619426802809 0.3637393513779609 0.17131243957948775 
0.024254298922989068 0.002009793756196843 0.7482962361080522 0.5703941517539394 0.40303184200992526 
0.02458308609638406 0.008424596363561099 0.6586569104081592 0.4647912353917981 0.7177486080487794 
0.024659453788245744 0.014236896865712305 1 1 1 
0.024685014447993137 0.019999789126464967 1 1 1 
0.024659139261444012 0.025762989294017147 1 1 1 
0.024582742842403686 0.03157544145515577 0.339619426802809 0.3637393513779609 0.17131243957948775 
0.024254503683421698 0.03798995134114078 1 1 1 
0.029516316768751837 -0.0012404762740523593 1 1 1 
0.029646259506225577 0.00550167253022375 1 1 1 
0.029663450063300612 0.011377354745840252 1 1 1 
0.029646858800958478 0.017115733802508342 1 1 1 
0.02964645504540298 0.022883448476573556 1 1 1 
0.029662900871998996 0.028622358038171255 1 1 1 
0.02964550132007929 0.03449843278036274 1 1 1 
0.029515885481462622 0.041240704944672246 1 1 1 
0.03464220381114487 -0.0053607134395335845 1 1 1 
0.034641996102893376 0.0023260201570666525 1 1 1 
0.03464163949156506 0.008473687097776964 1 1 1 
0.034642083223211086 0.01423181212602928 1 1 1 
0.03464201447600813 0.019999232150615276 1 1 1 
0.03464137746800078 0.025767179646665306 1 1 1 
0.03464109382276414 0.03152599380612341 1 1 1 
0.034640982424389594 0.03767412561469133 1 1 1 
0.03464099681887986 0.04536163932766405 1 1 1 
0.0397678807724163 -0.001240398249263596 1 1 1 
0.03963683927320305 0.005501416931819427 1 1 1 
0.039620315637365865 0.011376918628646204 1 1 1 
0.03963763017089275 0.01711484562129567 1 1 1 
0.039636720106371495 0.022882837412036207 1 1 1 
0.03961951315472496 0.028621920523211917 1 1 1 
0.03963651896271691 0.03449831531227469 1 1 1 
0.03976609590846611 0.0412407096951004 1 1 1 
0.04502791392147314 0.002009895037197932 1 1 1 
0.044700770593161764 0.008423389788453377 0.6232913636477287 0.19433360329406862 0.41829344767024246 
0.04462500156355842 0.014234244560249215 1 1 1 
0.0445982472974081 0.01999788503417762 1 1 1 
0.04462334292102682 0.025761686725355105 1 1 1 
0.04469937006338991 0.03157494357178766 1 1 1 
0.04502752373990511 0.03798995115064932 1 1 1 
0.05047808486943041 0.004935626944207967 1 1 1 
0.04995093028940904 0.011157190046021667 0.6232913636477287 0.19433360329406862 0.41829344767024246 
0.04969540688870744 0.017072892197578755 1 1 1 
0.0496945027560511 0.022919907619072567 1 1 1 
0.04994697587211913 0.028835393697232415 1 1 1 
0.05047407792234691 0.03505918568539552 1 1 1 
0.0566103522085826 0.007322262543379468 1 1 1 
0.055597912066200975 0.013819692210634038 1 1 1 
0.05541352101407483 0.020000397658560994 1 1 1 
0.055598358062715035 0.02618184199409606 1 1 1 
0.05660486656715565 0.03268086341890643 1 1 1 
