61

0.012606564338894602 0.007278445219293477 1 1 1 
0.013622087726441473 0.013800744097837755 1 1 1 
0.01380829055956788 0.020000019337329533 1 1 1 
0.01362213905250822 0.02619928955392887 1 1 1 
0.012606612628468732 0.03272157383093287 1 1 1 
0.018762813414907854 0.004896779296919348 0.24341149982359148 0.560750714441544 0.15755683842670234 
0.0192995862782191 0.011142637879587343 0.41089817557784036 0.6333063387676156 0.6537948196134269 
0.019559687260008247 0.01706896776367274 1 1 1 
0.01955968512995144 0.02293104207859995 1 1 1 
0.019299550791783235 0.028857405301089437 1 1 1 
0.018762839596296082 0.03510324809918356 0.4178936802979608 0.6087092352725031 0.22205469524806226 
0.024224486544086668 0.001958130171320684 0.24341149982359148 0.560750714441544 0.15755683842670234 
0.024562255217577354 0.008404698224717249 0.41089817557784036 0.6333063387676156 0.6537948196134269 
0.02464790884296005 0.014230252374030136 1 1 1 
0.02467626073219122 0.01999980092629504 1 1 1 
0.024647605567455717 0.025769653494313444 1 1 1 
0.024561935947199624 0.03159534450614071 0.4178936802979608 0.6087092352725031 0.22205469524806226 
0.02422464905012505 0.038041661716376844 1 1 1 
0.02950068902271284 -0.0013023328968617073 1 1 1 
0.029639411189760014 0.005473710800273741 1 1 1 
0.029659075015221307 0.01136980678363689 1 1 1 
0.029641429940126102 0.01711260060760109 1 1 1 
0.02964100185552478 0.022886598137749733 1 1 1 
0.02965852122124375 0.028629938335345304 1 1 1 
0.029638667280139433 0.03452640455791642 1 1 1 
0.029500286268881296 0.0413025385157302 1 1 1 
0.03464216173308049 -0.005442268907803881 1 1 1 
0.03464200728355588 0.0022853683951529016 1 1 1 
0.034641654233493815 0.008460407883376132 1 1 1 
0.03464209718888109 0.0142255324442978 1 1 1 
0.03464197916740789 0.01999924136042001 1 1 1 
0.03464135662388952 0.025773468180181777 1 1 1 
0.03464108093253543 0.0315393182780161 1 1 1 
0.03464098126490231 0.03771480643354726 1 1 1 
0.0346409975482638 0.045443152739622385 1 1 1 
0.039783520828752375 -0.0013021658049045053 1 1 1 
0.039643674441075895 0.005473479367795947 1 1 1 
0.03962471167859683 0.01136934075189467 1 1 1 
0.039643025214953456 0.017111724160130747 1 1 1 
0.039642115009501086 0.022885989221594617 1 1 1 
0.03962385688890035 0.02862951677278968 1 1 1 
0.03964334401099678 0.03452630149341255 1 1 1 
0.03978169668835341 0.04130254508940506 1 1 1 
0.04505775004228901 0.001958226161022482 1 1 1 
0.04472161292502028 0.008403437545985666 0.36627784415666176 0.25028852217472547 0.20624366035836045 
0.044636526313420535 0.014227593725343681 1 1 1 
0.044606948733618666 0.019997912379481897 1 1 1 
0.04463484430976032 0.025768381554875572 1 1 1 
0.04472016405605335 0.031594887134083795 1 1 1 
0.04505737688350287 0.03804167154246459 1 1 1 
0.050523913222057085 0.0048909937748851 1 1 1 
0.049986209403789506 0.011136788592280823 0.36627784415666176 0.25028852217472547 0.20624366035836045 
0.04972300767553207 0.017064809925444686 1 1 1 
0.049722143369535836 0.022928008233803063 1 1 1 
0.049982217629916 0.028855808065260863 1 1 1 
0.05051973728804968 0.03510355708589321 1 1 1 
0.05668094689480172 0.007281528284216829 1 1 1 
0.055659215668294675 0.013802244661890535 1 1 1 
0.055473247593359885 0.020000371551217398 1 1 1 
0.05565972428621374 0.026199250678878717 1 1 1 
0.05667545601807066 0.03272162082058742 1 1 1 
