61

0.012881428283560198 0.007437141996410094 1 1 1 
0.0138550542941227 0.013869348589645544 1 1 1 
0.014033912717181147 0.020000020452152826 1 1 1 
0.01385510603095248 0.026130686346258196 1 1 1 
0.01288147859658532 0.03256288020922645 1 1 1 
0.01893872589757021 0.005064246315049291 0.49075378785680757 0.6142559102338211 0.5981000504516253 
0.019430890400878625 0.011218411770401287 0.22006881911613713 0.14740789333095694 0.5597086947484428 
0.01965682260008229 0.017099783512389617 1 1 1 
0.0196568029783303 0.022900190897127026 1 1 1 
0.01943079995884205 0.02878162443013609 1 1 1 
0.018938656376029997 0.03493586660443274 0.13286129716838138 0.3615194772197009 0.6823298085761706 
0.024337137246903527 0.0021533381936560663 0.49075378785680757 0.6142559102338211 0.5981000504516253 
0.0246375935641248 0.008473338118224375 0.22006881911613713 0.14740789333095694 0.5597086947484428 
0.024690207911988123 0.014254588378809128 1 1 1 
0.02470990761831348 0.019999756669189597 1 1 1 
0.024689868919322278 0.02574523133855684 1 1 1 
0.024637179300913536 0.03152667437617422 0.13286129716838138 0.3615194772197009 0.6823298085761706 
0.024337455146102218 0.037846272937606326 1 1 1 
0.02955787136760366 -0.0010661845642604454 1 1 1 
0.029661299679508923 0.005573154510293032 1 1 1 
0.029675885065668237 0.011398818972149139 1 1 1 
0.029665949261330298 0.017126763587562946 1 1 1 
0.0296656297020909 0.02287237991765552 1 1 1 
0.0296753623654899 0.028600793608819435 1 1 1 
0.02966052115718687 0.03442690222860473 1 1 1 
0.02955735278870784 0.04106648714883909 1 1 1 
0.034642328669375826 -0.005124713722720749 1 1 1 
0.03464194910761902 0.002436795355858672 1 1 1 
0.03464159717938075 0.008509051324502637 1 1 1 
0.0346420360510155 0.014253900465908756 1 1 1 
0.03464211792848636 0.01999921181653251 1 1 1 
0.03464144193569842 0.025745070207794332 1 1 1 
0.03464113723726054 0.03149049105570236 1 1 1 
0.03464098811762184 0.03756324117283266 1 1 1 
0.03464099450948347 0.04512576646245016 1 1 1 
0.0397262694049662 -0.0010663889888536651 1 1 1 
0.03962184269037847 0.005572847386764537 1 1 1 
0.0396078100192766 0.011398452420700646 1 1 1 
0.03961861845060126 0.017125842015089137 1 1 1 
0.03961772251800264 0.022871762782690562 1 1 1 
0.0396071668819574 0.02860031433302212 1 1 1 
0.03962153460865032 0.0344267368309963 1 1 1 
0.03972462434940675 0.04106648464754496 1 1 1 
0.04494504326470769 0.0021534714034636263 1 1 1 
0.04464623511680179 0.008472262896689096 0.569913173111209 0.6461010551198211 0.5554105197977899 
0.04459429908003225 0.014251973240774854 1 1 1 
0.04457350724419571 0.019997807454957404 1 1 1 
0.04459271652916262 0.025743852836639342 1 1 1 
0.044644985101767745 0.031526052746100756 1 1 1 
0.04494458004269183 0.037846231578937996 1 1 1 
0.05034774627425657 0.005059224705714787 1 1 1 
0.04985472042725178 0.011212844291860204 0.569913173111209 0.6461010551198211 0.5554105197977899 
0.049626080037444106 0.017095718624721156 1 1 1 
0.049625064587095744 0.022897080098640155 1 1 1 
0.04985096248017964 0.028779786290689977 1 1 1 
0.05034427057293861 0.034936381350378055 1 1 1 
0.05640609338243678 0.007440089523206177 1 1 1 
0.0554264614548551 0.013871002796884337 1 1 1 
0.05524757217416545 0.02000048264029132 1 1 1 
0.05542669361148558 0.026130644120418375 1 1 1 
0.05640064027043037 0.03256294883980936 1 1 1 
