61

0.012763686592085129 0.007369162103230698 1 1 1 
0.01375728625822213 0.013839671042922023 1 1 1 
0.013939635321937318 0.020000020052034717 1 1 1 
0.013757338310881733 0.026160363533199293 1 1 1 
0.012763736265353855 0.03263085870315323 1 1 1 
0.018864132998017858 0.004994408803573599 0.7685066549245678 0.38877299492684025 0.18118110725971606 
0.019376632199564398 0.011187102424608164 0.3900723468263281 0.23571102202820132 0.47985355226056237 
0.019618743881572327 0.01708680419270364 1 1 1 
0.01961873239796798 0.0229131873603897 1 1 1 
0.019376567669993777 0.028812937452854175 1 1 1 
0.018864121751217697 0.03500565130054488 0.11408341132797253 0.32762036201059036 0.1049965351787849 
0.024290064379338578 0.0020717714146244277 0.7685066549245678 0.38877299492684025 0.18118110725971606 
0.02460727733426241 0.00844688767014035 0.3900723468263281 0.23571102202820132 0.47985355226056237 
0.02467292711815021 0.014244649060340658 1 1 1 
0.024695561734378348 0.01999977498534011 1 1 1 
0.024672600573348025 0.025755210719146243 1 1 1 
0.02460690418542947 0.03155314170654665 0.11408341132797253 0.32762036201059036 0.1049965351787849 
0.024290318953536005 0.037927916631340625 1 1 1 
0.02953463973423753 -0.0011657337597903736 1 1 1 
0.029653505415419033 0.005533731408942873 1 1 1 
0.02966871991199223 0.011386448716322503 1 1 1 
0.029654313811619024 0.017120039274139246 1 1 1 
0.029653943249772503 0.022879124905957764 1 1 1 
0.02966817951008354 0.02861322272113585 1 1 1 
0.029652734354356256 0.034466357221268416 1 1 1 
0.029534172242222354 0.04116599242550184 1 1 1 
0.03464225624287478 -0.005260744186219549 1 1 1 
0.03464197882663019 0.002374235123236043 1 1 1 
0.03464162130948347 0.008489181598191266 1 1 1 
0.034642064452500135 0.01424043713542542 1 1 1 
0.03464205811832987 0.019999222361124433 1 1 1 
0.03464140396707187 0.02575854492367471 1 1 1 
0.034641111062243435 0.0315104419110335 1 1 1 
0.03464098436125332 0.03762586914384871 1 1 1 
0.034640995877287105 0.04526172295543458 1 1 1 
0.039749537678370424 -0.0011657709019468388 1 1 1 
0.03962961096980012 0.0055334503354716544 1 1 1 
0.03961501775001929 0.011386045532194626 1 1 1 
0.03963021217400003 0.0171191367649093 1 1 1 
0.03962930537882419 0.02287851132171086 1 1 1 
0.039614281260050344 0.028612766639426704 1 1 1 
0.03962929907102463 0.034466220609191495 1 1 1 
0.03974780726986601 0.04116599450456677 1 1 1 
0.04499212773567801 0.0020718830932076444 1 1 1 
0.04467656666783405 0.00844574169879682 0.3325379624866489 0.6579685380077197 0.6753020121815729 
0.04461155137487712 0.014242008884748563 1 1 1 
0.04458776473963062 0.01999785192237954 1 1 1 
0.04460992357670392 0.02575387354601854 1 1 1 
0.04467522764470199 0.03155259239045661 1 1 1 
0.04499171104093818 0.03792790147050418 1 1 1 
0.05042243662228398 0.004989068745719804 1 1 1 
0.049909069765091706 0.01118140119622871 0.3325379624866489 0.6579685380077197 0.6753020121815729 
0.04966406488444663 0.017082690193145917 1 1 1 
0.04966311265030193 0.022910099157317138 1 1 1 
0.04990518193802948 0.028811185674805867 1 1 1 
0.050418646901207134 0.0350060735165018 1 1 1 
0.05652382412706817 0.007372182808996438 1 1 1 
0.0555241281047733 0.013841260394952468 1 1 1 
0.055341870121276386 0.020000431878289315 1 1 1 
0.055524489687208016 0.026160321646487326 1 1 1 
0.05651834881973347 0.032630910047746535 1 1 1 
