61

0.012780755306919986 0.007379016979112316 1 1 1 
0.013771663161056345 0.013843942927877993 1 1 1 
0.013953543684267766 0.02000002011893721 1 1 1 
0.013771715221490947 0.026156091721519635 1 1 1 
0.012780805100205626 0.03262100402756942 1 1 1 
0.018875022030332436 0.005004724535530087 0.4026921809644902 0.3868151017172987 0.5518338427470205 
0.019384690131971832 0.011191752443345863 0.18551446932507604 0.3174673934477943 0.4932680896134618 
0.01962460361372821 0.017088711640425466 1 1 1 
0.019624591010447546 0.022911277622325577 1 1 1 
0.019384622075596974 0.0288082869659103 1 1 1 
0.01887500401468784 0.0349953416385575 0.4686182637859222 0.7164474153064327 0.24118685330672385 
0.02429700871194459 0.0020838048256221035 0.4026921809644902 0.3868151017172987 0.5518338427470205 
0.024611864331077274 0.008451003807530583 0.18551446932507604 0.3174673934477943 0.4932680896134618 
0.02467550325710725 0.014246131026877568 1 1 1 
0.024697633062165183 0.019999772253969504 1 1 1 
0.024675174607315612 0.02575372324887717 1 1 1 
0.024611485240575808 0.03154902353897958 0.4686182637859222 0.7164474153064327 0.24118685330672385 
0.024297272812220473 0.03791587201454035 1 1 1 
0.029538135674441305 -0.0011511412956864816 1 1 1 
0.029654783545095775 0.005539754173544555 1 1 1 
0.02966975462910453 0.011388234659585016 1 1 1 
0.029655892393000063 0.017120951283022857 1 1 1 
0.02965552881199472 0.02287820961067497 1 1 1 
0.029669216379221777 0.028611428418478524 1 1 1 
0.029654010630795796 0.03446033053204271 1 1 1 
0.029537660895778993 0.041151406106708054 1 1 1 
0.03464226667814551 -0.005241024304694116 1 1 1 
0.03464197495734671 0.002383527325633554 1 1 1 
0.034641617745305976 0.008492143891639412 1 1 1 
0.03464206053772043 0.01424226361578043 1 1 1 
0.03464206676505145 0.019999220630835812 1 1 1 
0.034641409327556896 0.02575671666776449 1 1 1 
0.03464111465784228 0.031507468063502034 1 1 1 
0.03464098481953742 0.037616567948687965 1 1 1 
0.034640995685230755 0.04524201366387109 1 1 1 
0.039746037095899536 -0.0011512019358729652 1 1 1 
0.039628336481116654 0.005539468674320592 1 1 1 
0.03961397718544686 0.011387837413463477 1 1 1 
0.03962864028093763 0.017120045970334515 1 1 1 
0.03962773457484899 0.022877595529017993 1 1 1 
0.03961325396802342 0.028610968817908974 1 1 1 
0.039628025694211394 0.034460189944948344 1 1 1 
0.039744318255878146 0.04115140759451201 1 1 1 
0.04498518048438419 0.0020839190860212665 1 1 1 
0.04467197732319668 0.008449868973518402 0.20418479270699885 0.5806509910565144 0.6311472993108557 
0.04460897958563221 0.014243493848590676 1 1 1 
0.044585706226468125 0.019997845436753654 1 1 1 
0.04460735812891928 0.025752379658291913 1 1 1 
0.04467065078482947 0.0315484638814726 1 1 1 
0.04498475780302267 0.037915853503477245 1 1 1 
0.050411532349363165 0.004999431523522302 1 1 1 
0.049900999750200445 0.011186069290393438 0.20418479270699885 0.5806509910565144 0.6311472993108557 
0.049658218305592514 0.01708460384891493 1 1 1 
0.049657256720510336 0.022908185104021914 1 1 1 
0.049897127877704374 0.028806520926349884 1 1 1 
0.05040778681779779 0.034995776888612766 1 1 1 
0.056506756379388796 0.007382028553271184 1 1 1 
0.05550976487062478 0.013845541812953936 1 1 1 
0.05532795852864502 0.020000438929563064 1 1 1 
0.05551010875941204 0.026156049666430068 1 1 1 
0.0565012836725164 0.032621057109830126 1 1 1 
