61

0.012624322847340021 0.007288698360343372 1 1 1 
0.013637609003657946 0.01380511199969665 1 1 1 
0.013823411874957479 0.020000019425248358 1 1 1 
0.013637660462443942 0.026194921775417424 1 1 1 
0.012624371312857702 0.03271132087928715 1 1 1 
0.018774357665874937 0.004908037964618716 0.5211160201666117 0.3796493462034741 0.21094128043985566 
0.01930854467298172 0.011147808204167076 0.4273403286307006 0.5384708053441749 0.2983102872090816 
0.019566809588972618 0.017071002772750858 1 1 1 
0.019566806487140168 0.02292900523969561 1 1 1 
0.019308506200686543 0.028852234689631107 1 1 1 
0.0187743817788987 0.03509199113094966 0.268427928541333 0.12930128906299687 0.518528389306096 
0.024232036210661268 0.0019712135645033988 0.5211160201666117 0.3796493462034741 0.21094128043985566 
0.024567583944372993 0.0084098452806755 0.4273403286307006 0.5384708053441749 0.2983102872090816 
0.02465086257717819 0.01423195249903611 1 1 1 
0.02467848146797547 0.019999797942157657 1 1 1 
0.024650556363194995 0.025767948559975513 1 1 1 
0.024567258682834728 0.03159019636141464 0.268427928541333 0.12930128906299687 0.518528389306096 
0.024232209466153166 0.03802856653532345 1 1 1 
0.029504673906632542 -0.0012867016897426687 1 1 1 
0.02964121233326265 0.005480892472371929 1 1 1 
0.02966018503886731 0.011371721704170671 1 1 1 
0.029642742305503875 0.017113357820860216 1 1 1 
0.02964232010660882 0.022885836643843138 1 1 1 
0.02965963218979026 0.028628015406038206 1 1 1 
0.029640464547473582 0.03451922063238767 1 1 1 
0.029504264065126365 0.04128691298915145 1 1 1 
0.03464217225259609 -0.005421752571239546 1 1 1 
0.034642004717591546 0.002295702851997586 1 1 1 
0.0346416505478016 0.008463805548624458 1 1 1 
0.034642093790715894 0.014227050359107336 1 1 1 
0.03464198802134921 0.01999923894251085 1 1 1 
0.03464136180568538 0.025771947957676785 1 1 1 
0.0346410840791661 0.031535909367305846 1 1 1 
0.03464098152457069 0.03770446505625775 1 1 1 
0.034640997367989555 0.045422646885960684 1 1 1 
0.03977953318845939 -0.0012865565922099457 1 1 1 
0.03964187649334113 0.005480654700027743 1 1 1 
0.03962359652561418 0.011371263425463747 1 1 1 
0.039641721648256134 0.017112478424428396 1 1 1 
0.039640811280861936 0.022885227172936336 1 1 1 
0.03962275476951679 0.02862758976881039 1 1 1 
0.039641548871635755 0.034519114044839795 1 1 1 
0.039777718496410756 0.04128691913138199 1 1 1 
0.045050193858584615 0.0019713106249403763 1 1 1 
0.04471628121504718 0.00840859857601985 0.5810271321135903 0.41485876532246047 0.5331508240233143 
0.04463357776930094 0.014229295161483467 1 1 1 
0.044604741089715995 0.019997905468915923 1 1 1 
0.04463190147705539 0.025766668723710768 1 1 1 
0.04471484437413408 0.031589728933870395 1 1 1 
0.045049816797354786 0.038028574008948796 1 1 1 
0.050512349757882435 0.004902303831625683 1 1 1 
0.049977241970915715 0.011141974115080031 0.5810271321135903 0.41485876532246047 0.5331508240233143 
0.04971589755916965 0.017066848741683092 1 1 1 
0.04971502320289958 0.022925964014796827 1 1 1 
0.049973258206613136 0.02885061808953072 1 1 1 
0.050508215650775685 0.03509231226988262 1 1 1 
0.05666318749732123 0.007291776255280812 1 1 1 
0.05564370566118361 0.013806622648262306 1 1 1 
0.055458122356609366 0.020000377971065658 1 1 1 
0.055644199034778234 0.026194882446715476 1 1 1 
0.056657697687586106 0.03271136733618325 1 1 1 
