61

0.012712002234373704 0.0073393213684200325 1 1 1 
0.013713364347538566 0.013826791351054878 1 1 1 
0.013897066445568762 0.020000019834758388 1 1 1 
0.01371341628278664 0.02617324296693273 1 1 1 
0.012712051501845357 0.03266069884134973 1 1 1 
0.018831014916063128 0.0049628085069674584 0.5142559852886421 0.7558912330220777 0.2865422152495823 
0.01935185088231608 0.011172801327820277 0.13975262091745339 0.104114654105949 0.25546130638500936 
0.019600321656672148 0.01708098620798362 1 1 1 
0.019600313439085866 0.022919011902449306 1 1 1 
0.019351796575483648 0.028827239833175665 1 1 1 
0.018831020847503904 0.03503723632284678 0.5038902680447758 0.4016444233923743 0.13521328396161494 
0.024268810313510483 0.0020349407727277033 0.5142559852886421 0.7558912330220777 0.2865422152495823 
0.024593011990595673 0.008433856098320012 0.13975262091745339 0.104114654105949 0.25546130638500936 
0.02466496533889801 0.014240068352574192 1 1 1 
0.024689277170833034 0.019999783379349743 1 1 1 
0.024664645716290796 0.025759807485002364 1 1 1 
0.024592656751775546 0.031566178671605535 0.5038902680447758 0.4016444233923743 0.13521328396161494 
0.02426903542168538 0.03796478130453546 1 1 1 
0.029523811771492645 -0.001210228187336648 1 1 1 
0.029649330775544047 0.005514884036278547 1 1 1 
0.029665580101690788 0.011381030118680477 1 1 1 
0.029649752322981518 0.017117404547528213 1 1 1 
0.02964936149094484 0.02288177015903762 1 1 1 
0.02966503402714431 0.028618666230440182 1 1 1 
0.02964856674072717 0.034485215175514304 1 1 1 
0.029523366058805248 0.041210468704763276 1 1 1 
0.034642224822975805 -0.005320456050043226 1 1 1 
0.03464198961765339 0.0023456553624888812 1 1 1 
0.034641632162045695 0.008480025788580226 1 1 1 
0.03464207588145294 0.014235159589029956 1 1 1 
0.03464203200811149 0.019999228006221007 1 1 1 
0.03464138800770064 0.02576382812553088 1 1 1 
0.03464110056971541 0.0315196322462306 1 1 1 
0.03464098313063208 0.03765447449997161 1 1 1 
0.034640996446089714 0.045321403065382154 1 1 1 
0.03976037834173768 -0.0012101957449488282 1 1 1 
0.03963377491118756 0.005514617592648272 1 1 1 
0.03961817462377276 0.011380607802718325 1 1 1 
0.03963475216382204 0.017116510579495363 1 1 1 
0.03963384298098058 0.02288115807412147 1 1 1 
0.03961739846111311 0.02861822109849342 1 1 1 
0.039633458534950906 0.034485090198605385 1 1 1 
0.03975861456668708 0.04121047244170411 1 1 1 
0.045013393024789516 0.002035045708915195 1 1 1 
0.04469083942353953 0.008432674730553317 0.7197873338190739 0.6792843574647981 0.5364757288684484 
0.04461949954845987 0.014237420331595398 1 1 1 
0.044594010577877506 0.019997871650753073 1 1 1 
0.04461785305306143 0.02575849057547826 1 1 1 
0.04468946332872512 0.03156566029100823 1 1 1 
0.045012992928410656 0.03796477547013148 1 1 1 
0.050455603070301336 0.0049573243056905475 1 1 1 
0.04993388536885286 0.011167047868086014 0.7197873338190739 0.6792843574647981 0.5364757288684484 
0.04968244822381984 0.017076855194100876 1 1 1 
0.04968152459890226 0.022915938753980573 1 1 1 
0.04992995494256676 0.02882553446630591 1 1 1 
0.050451682246418245 0.03503761991397884 1 1 1 
0.05657550679977051 0.0073423668231012915 1 1 1 
0.05556801062660638 0.013828351656946767 1 1 1 
0.05538444921067671 0.020000411137255633 1 1 1 
0.05556842367206438 0.026173201799218483 1 1 1 
0.05657002476999341 0.03266074646327521 1 1 1 
