61

0.012930603924557535 0.007465534254742545 1 1 1 
0.013894838892835621 0.01388190460523305 1 1 1 
0.014072032267101107 0.02000002056774445 1 1 1 
0.01389489020217996 0.026118130362326242 1 1 1 
0.012930654337658727 0.03253448853344703 1 1 1 
0.018969495334063884 0.005092425866579178 0.10062249832571149 0.38870598138831947 0.18159808257939924 
0.019452598676381116 0.011230937176971306 0.15693164138262064 0.4712632938031709 0.30317638876014963 
0.019671057355842746 0.0171050552416037 1 1 1 
0.019671034050367055 0.022894911023872064 1 1 1 
0.019452496279846587 0.0287690971903992 1 1 1 
0.01896939311179919 0.03490771708276022 0.10240578284063323 0.3366805358129743 0.4235059583675991 
0.02435617116239774 0.002186317415174719 0.10062249832571149 0.38870598138831947 0.18159808257939924 
0.02464929179538078 0.008483011566234438 0.15693164138262064 0.4712632938031709 0.30317638876014963 
0.024697117796510237 0.014258561553336067 1 1 1 
0.024716001656279254 0.019999749456041844 1 1 1 
0.024696775195898076 0.025741239936582727 1 1 1 
0.024648860365074535 0.03151699164618407 0.10240578284063323 0.3366805358129743 0.4235059583675991 
0.02435651364493561 0.03781326188483861 1 1 1 
0.029566910577326487 -0.0010254343266961107 1 1 1 
0.02966384526673282 0.0055880962141427485 1 1 1 
0.02967892800689143 0.011404074809014165 1 1 1 
0.029671332454416475 0.017129875927325747 1 1 1 
0.02967103613570828 0.022869260368680797 1 1 1 
0.029678414697322963 0.028595512459892263 1 1 1 
0.029663067705996738 0.03441194355926505 1 1 1 
0.029566370184995784 0.04102575629649747 1 1 1 
0.034642359115673566 -0.005067899228302395 1 1 1 
0.03464193465305457 0.0024618186537110885 1 1 1 
0.03464158757782327 0.008516995771798298 1 1 1 
0.034642023235904845 0.014260129599349188 1 1 1 
0.03464214296632057 0.019999208399228342 1 1 1 
0.03464145854069659 0.02573883686491932 1 1 1 
0.03464114915536874 0.03148251179651501 1 1 1 
0.03464099014810667 0.037538185484266795 1 1 1 
0.03464099390845128 0.04506898340761099 1 1 1 
0.03971721164593293 -0.001025712162631606 1 1 1 
0.03961930839612704 0.005587781535536677 1 1 1 
0.039604747692652896 0.011403720257967619 1 1 1 
0.03961324946557565 0.017128946642325164 1 1 1 
0.03961236060406537 0.022868641610717753 1 1 1 
0.039604144834447026 0.02859502430240859 1 1 1 
0.03961899917011547 0.03441176518034336 1 1 1 
0.03971560606914525 0.041025751492296605 1 1 1 
0.04492601078094013 0.00218646227132386 1 1 1 
0.04463453101192228 0.008481961375437544 0.7608782571381498 0.7423665269541382 0.6438437161246432 
0.04458740000749277 0.014255960052984833 1 1 1 
0.04456744994525897 0.019997789064174005 1 1 1 
0.044585837299376235 0.02573984630880619 1 1 1 
0.04463332047154767 0.03151633933894199 1 1 1 
0.04492552443242705 0.037813207200359 1 1 1 
0.05031694165681633 0.005087532762318985 1 1 1 
0.049832968633322934 0.011225432315415044 0.7608782571381498 0.7423665269541382 0.6438437161246432 
0.04961188664869445 0.01710101545044882 1 1 1 
0.04961084587980988 0.022891796125480857 1 1 1 
0.049829279145699575 0.028767232147425752 1 1 1 
0.05031360358148445 0.034908272168722554 1 1 1 
0.056356925360718596 0.007468443818078092 1 1 1 
0.05538672440220615 0.013883585051681666 1 1 1 
0.05520944544557671 0.020000505364169467 1 1 1 
0.05538689719027417 0.026118088653062248 1 1 1 
0.05635148475951789 0.03253456816520145 1 1 1 
