61

0.01296294014077575 0.007484204021844038 1 1 1 
0.013920627138247193 0.01389021986570159 1 1 1 
0.014096645498288858 0.020000020622752634 1 1 1 
0.013920678052485452 0.026109815075945706 1 1 1 
0.012962990546829395 0.032515819140859506 1 1 1 
0.018989592931649056 0.005110603644755499 0.2648900945843313 0.10158526515044015 0.7204797489624667 
0.01946655149818488 0.011238987345779905 0.6596444186571448 0.38150819868259866 0.30784801879101886 
0.019679861869665374 0.017108461961205534 1 1 1 
0.01967983605223041 0.022891498610183376 1 1 1 
0.019466440863638895 0.02876104573095981 1 1 1 
0.018989466365295422 0.03488956179249272 0.3177832944833867 0.42384346906910453 0.4794979840138699 
0.024368461378280405 0.0022076112476080846 0.2648900945843313 0.10158526515044015 0.7204797489624667 
0.024656654510909527 0.008488920039327153 0.6596444186571448 0.38150819868259866 0.30784801879101886 
0.024701576948334476 0.014261125214218727 1 1 1 
0.024720068806983714 0.019999744885567616 1 1 1 
0.02470123255491475 0.02573866379144552 1 1 1 
0.024656211835149818 0.03151107624561614 0.3177832944833867 0.42384346906910453 0.4794979840138699 
0.02436881932947367 0.03779194722456066 1 1 1 
0.029572617121967317 -0.000998931546045925 1 1 1 
0.02966529147353872 0.0055974089092262 1 1 1 
0.02968095865834886 0.011407583037348587 1 1 1 
0.029675041798591095 0.017132020883380346 1 1 1 
0.02967476136901759 0.022867111148009964 1 1 1 
0.02968045217077896 0.028591987395726683 1 1 1 
0.029664516030040427 0.03440261839907848 1 1 1 
0.029572062278838365 0.040999266585469415 1 1 1 
0.034642379145376004 -0.0050305398821662165 1 1 1 
0.034641924523599564 0.0024778998918706767 1 1 1 
0.03464158148690776 0.008522122493466004 1 1 1 
0.03464201450980303 0.014264421850152649 1 1 1 
0.034642159421148885 0.019999206479164734 1 1 1 
0.03464146972921324 0.025734541995670445 1 1 1 
0.03464115732518369 0.03147736190890317 1 1 1 
0.0346409916551189 0.03752208157022144 1 1 1 
0.03464099350381401 0.04503164486419691 1 1 1 
0.03971149184413678 -0.0009992587609001411 1 1 1 
0.039617869677514524 0.005597090420210156 1 1 1 
0.03960270376120716 0.011407235188212057 1 1 1 
0.039609548355472694 0.017131086630242175 1 1 1 
0.039608665057885586 0.02286649125442397 1 1 1 
0.039602127822433664 0.02859149368099129 1 1 1 
0.03961755879804889 0.034402431171817835 1 1 1 
0.03970991344384739 0.04099926012125101 1 1 1 
0.04491372368879599 0.002207764644201663 1 1 1 
0.04462716457061733 0.008487884722764981 0.522252419756204 0.7430186719579228 0.6398902931272396 
0.04458294758804402 0.014258533771871407 1 1 1 
0.0445634068203932 0.019997777031586998 1 1 1 
0.044581398197942074 0.02573726094532917 1 1 1 
0.044625980865476166 0.03151040371116086 1 1 1 
0.044913220919452046 0.037791882896332035 1 1 1 
0.050296822792391165 0.005105793469123084 1 1 1 
0.04981898542370949 0.011233526047782008 0.522252419756204 0.7430186719579228 0.6398902931272396 
0.04960311002156084 0.017104440252875885 1 1 1 
0.04960205303589726 0.022888382904817525 1 1 1 
0.049815345730131806 0.028759166332557297 1 1 1 
0.05029357733750964 0.03489014389729825 1 1 1 
0.056324595173786886 0.0074870860848016895 1 1 1 
0.055360969224405074 0.01389191718474625 1 1 1 
0.0551848280446639 0.0200005208187844 1 1 1 
0.05536110117532583 0.02610977396079401 1 1 1 
0.05631916398111773 0.03251590727303763 1 1 1 
