61

0.01279774276686318 0.007388824940492747 1 1 1 
0.013785905802734364 0.013848204114307072 1 1 1 
0.013967308400591648 0.020000020182843747 1 1 1 
0.013785957854307848 0.026151830601540742 1 1 1 
0.012797792671655055 0.032611196266826806 1 1 1 
0.01888583467854788 0.005014929357264357 0.7135658845708034 0.4430280382629276 0.10387994487198547 
0.019392646281957186 0.011196343649432748 0.5312564799565789 0.21459718902716274 0.5811320554492685 
0.019630322999914997 0.01709060224463779 1 1 1 
0.019630309262018288 0.02290938467510029 1 1 1 
0.019392574639693082 0.02880369527184286 1 1 1 
0.01888580937375614 0.03498514337745686 0.48952903635058487 0.5981879317991382 0.20030119586409192 
0.024303881364570755 0.0020957138931279756 0.7135658845708034 0.4430280382629276 0.10387994487198547 
0.024616366562896314 0.00845500666960714 0.5312564799565789 0.21459718902716274 0.5811320554492685 
0.024678042043032294 0.014247591417082275 1 1 1 
0.0246996949181465 0.019999769558437103 1 1 1 
0.024677711393449573 0.025752257280508027 1 1 1 
0.02461598154920722 0.03154501852490668 0.48952903635058487 0.5981879317991382 0.20030119586409192 
0.024304154836967736 0.03790395181215232 1 1 1 
0.029541573744196414 -0.0011366704267179715 1 1 1 
0.02965600581971836 0.005545646774053368 1 1 1 
0.029670784551847948 0.011390012465841861 1 1 1 
0.029657499518084426 0.017121879883844896 1 1 1 
0.02965714302490076 0.022877277834668683 1 1 1 
0.029670248582264528 0.028609642230820638 1 1 1 
0.029655231305885123 0.03445443380212278 1 1 1 
0.029541091670129797 0.041136941428678825 1 1 1 
0.034642277089258114 -0.005221398257945886 1 1 1 
0.03464197095700242 0.002392701726914585 1 1 1 
0.034641614214115206 0.008495063151065782 1 1 1 
0.03464205657286929 0.014244123160815587 1 1 1 
0.03464207538060077 0.019999218975768954 1 1 1 
0.034641414708768845 0.02575485539951656 1 1 1 
0.03464111830195207 0.03150453723276382 1 1 1 
0.034640985302883856 0.037607384324987905 1 1 1 
0.03464099549199831 0.045222398204770364 1 1 1 
0.039742594182760944 -0.0011367547077248917 1 1 1 
0.03962711787825569 0.005545357079698523 1 1 1 
0.039612941335941405 0.011389620930032303 1 1 1 
0.039627039603309884 0.017120971792079536 1 1 1 
0.039626135136731966 0.022876663254443066 1 1 1 
0.03961223141382449 0.028609179178509345 1 1 1 
0.03962680801317035 0.03445428919289327 1 1 1 
0.03974088712727405 0.04113694230507098 1 1 1 
0.04497830532917941 0.0020958309015301504 1 1 1 
0.044667472800649755 0.00845388263542353 0.5896234493079425 0.3098177308193363 0.3728124199668206 
0.0446064450567524 0.014244957428474883 1 1 1 
0.04458365713028151 0.019997838995770772 1 1 1 
0.04460482998886464 0.025750907442510188 1 1 1 
0.04466615881739175 0.03154444852021289 1 1 1 
0.04497787643740658 0.0379039298251403 1 1 1 
0.05040070490082352 0.005009682881488282 1 1 1 
0.04989303119772587 0.011190678910321723 0.5896234493079425 0.3098177308193363 0.3728124199668206 
0.04965251216356635 0.017086500930052234 1 1 1 
0.04965154132744142 0.022906288198531584 1 1 1 
0.04988917615257101 0.028801915593809443 1 1 1 
0.050397003793016794 0.034985591732074876 1 1 1 
0.05648977008746975 0.007391826941994953 1 1 1 
0.05549553616836454 0.013849812450731844 1 1 1 
0.055314190674467925 0.02000044604873447 1 1 1 
0.05549586209578321 0.026151788415830424 1 1 1 
0.05648430016590374 0.032611251332989956 1 1 1 
