61

0.012694617794978472 0.007329284202163276 1 1 1 
0.013698464732153137 0.01382247680317274 1 1 1 
0.013882601509287816 0.02000001975725892 1 1 1 
0.013698516598761378 0.02617755741685655 1 1 1 
0.012694666913538677 0.03267073581079025 1 1 1 
0.018819827630688592 0.004952061477789614 0.5170334816471306 0.4622673206739063 0.48291127405467416 
0.019343389062341183 0.011167917932945123 0.2382990528051294 0.2923103563405199 0.5076604782396769 
0.019593899839439315 0.017079016791238324 1 1 1 
0.0195938926784863 0.022920983401353248 1 1 1 
0.019343338043075614 0.02883212361512077 1 1 1 
0.0188198382438846 0.03504797923591584 0.14088872704785832 0.48585786606580683 0.7668637920052583 
0.024261588234382948 0.002022425573432205 0.5170334816471306 0.4622673206739063 0.48291127405467416 
0.024588090283586078 0.008429283577186513 0.2382990528051294 0.2923103563405199 0.5076604782396769 
0.02466223054700423 0.014238494732477243 1 1 1 
0.02468715407669521 0.01999978623884225 1 1 1 
0.024661913425912854 0.025761386304835456 1 1 1 
0.02458774103443952 0.03157075276948236 0.14088872704785832 0.48585786606580683 0.7668637920052583 
0.0242618032366497 0.03797730798147124 1 1 1 
0.029520091433279213 -0.001225294536654961 1 1 1 
0.029647824244081262 0.005508342732163946 1 1 1 
0.029664519249703803 0.011379199568878473 1 1 1 
0.029648290699953343 0.017116560533454873 1 1 1 
0.029647893345226103 0.022882617904017816 1 1 1 
0.029663971549551214 0.028620505017227526 1 1 1 
0.029647063021072468 0.03449175962198566 1 1 1 
0.029519652944451868 0.04122552910472114 1 1 1 
0.0346422143216429 -0.00534054050602042 1 1 1 
0.03464199293290935 0.0023358956880052783 1 1 1 
0.034641635819990683 0.008476880637169525 1 1 1 
0.034642079581056376 0.014233468631438902 1 1 1 
0.03464202325352057 0.019999230040174513 1 1 1 
0.034641382727965755 0.025765521082529393 1 1 1 
0.03464109717126098 0.03152278884928654 1 1 1 
0.034640982766489074 0.037664242244511405 1 1 1 
0.03464099663314246 0.04534147695169432 1 1 1 
0.0397641024988887 -0.0012252392192112329 1 1 1 
0.03963527796406285 0.005508081604471954 1 1 1 
0.03961924100341061 0.01137877045339263 1 1 1 
0.03963620614672782 0.01711566945068864 1 1 1 
0.0396352964535591 0.022882006326176013 1 1 1 
0.03961845166743048 0.02862006366280619 1 1 1 
0.03963495971529911 0.03449163842467123 1 1 1 
0.03976232806133124 0.041225533357268355 1 1 1 
0.0450206196568571 0.0020225285978906567 1 1 1 
0.04469576373301744 0.008428089763636149 0.3905972239495227 0.21642526524593925 0.7024511446373739 
0.04462222961921001 0.014235844475412755 1 1 1 
0.04459612068578139 0.019997878318961423 1 1 1 
0.0446205770153849 0.0257600764833785 1 1 1 
0.044694375395387294 0.03157024465355806 1 1 1 
0.04502022463391543 0.0379773050244201 1 1 1 
0.05046680735989046 0.004946528244568989 1 1 1 
0.04994235795140044 0.011162147715410036 0.3905972239495227 0.21642526524593925 0.7024511446373739 
0.0496888572799789 0.01707488064119367 1 1 1 
0.0496879433622511 0.022917915963095902 1 1 1 
0.049938415087637425 0.028830434890140588 1 1 1 
0.05046284334286771 0.03504835012960432 1 1 1 
0.05659289108661316 0.0073323370249623095 1 1 1 
0.05558289764875204 0.013824027291871982 1 1 1 
0.05539891771477546 0.020000404362764537 1 1 1 
0.05558332730601927 0.026177516555999793 1 1 1 
0.05658740716590986 0.03267078269271634 1 1 1 
