61

0.012914300586260518 0.0074561212913133845 1 1 1 
0.013881722840307491 0.013877730280745432 1 1 1 
0.014059483778952078 0.020000020533443585 1 1 1 
0.013881774313516455 0.02612230468534324 1 1 1 
0.012914350979888937 0.03254390130499567 1 1 1 
0.01895932112503099 0.0050831531503423445 0.14051506232658392 0.2527944919066758 0.5416527891566565 
0.0194454662759811 0.011226821957394502 0.723284924487112 0.38588095653511023 0.7253882949092154 
0.019666450102925694 0.017103319016782307 1 1 1 
0.019666428037080436 0.022896650016458738 1 1 1 
0.019445367918819862 0.028773213035798578 1 1 1 
0.018959230313619745 0.034916979295366725 0.45919399751173384 0.6363478379794453 0.720770705302472 
0.024349905372785804 0.0021754611322448063 0.14051506232658392 0.2527944919066758 0.5416527891566565 
0.02464547944102692 0.008479895968133316 0.723284924487112 0.38588095653511023 0.7253882949092154 
0.024694844870548655 0.014257254696253026 1 1 1 
0.024713970453445935 0.019999751813990007 1 1 1 
0.024694503351733413 0.025742552937113583 1 1 1 
0.024645053695550295 0.03152011048351626 0.45919399751173384 0.6363478379794453 0.720770705302472 
0.02435023984160138 0.037824128700227326 1 1 1 
0.02956396074085892 -0.0010388862526509056 1 1 1 
0.02966304766861272 0.00558324558676846 1 1 1 
0.029677913807922274 0.011402322895163741 1 1 1 
0.02966951328342409 0.01712882408269615 1 1 1 
0.02966920913547304 0.022870314507498272 1 1 1 
0.029677397253676015 0.028597272806670078 1 1 1 
0.029662269496196415 0.03441680007030436 1 1 1 
0.029563427604718882 0.04103920172918465 1 1 1 
0.034642349016852605 -0.005086735116698675 1 1 1 
0.03464193957410558 0.0024535975412051927 1 1 1 
0.03464159071925518 0.008514382559077204 1 1 1 
0.034642027545753885 0.014258024550911417 1 1 1 
0.034642134665780006 0.019999209466196443 1 1 1 
0.03464145298241487 0.02574094327708409 1 1 1 
0.034641145137298816 0.031485136607400994 1 1 1 
0.03464098944127626 0.0375464176124417 1 1 1 
0.03464099410964161 0.04508780884391438 1 1 1 
0.03972016784689186 -0.001039139523329714 1 1 1 
0.03962010223322279 0.005582933181752908 1 1 1 
0.039605768426125856 0.011401964600935718 1 1 1 
0.03961506414763453 0.017127897334700885 1 1 1 
0.03961417276131271 0.022869696300403728 1 1 1 
0.039605152126915656 0.02859678753740206 1 1 1 
0.039619793569086396 0.03441662605844591 1 1 1 
0.03971854893323581 0.04103919771697373 1 1 1 
0.04493227566076471 0.0021756019492449197 1 1 1 
0.04463834528432599 0.008478837794404032 0.7917927475434702 0.6926164599963031 0.4541540689457162 
0.04458966942399082 0.014254648456314566 1 1 1 
0.04456946899099422 0.019997795149357768 1 1 1 
0.04458810008115723 0.025741164178135073 1 1 1 
0.04463712148568298 0.03151946836325364 1 1 1 
0.044931797224989696 0.03782407860665506 1 1 1 
0.050327127155020565 0.005078217755503665 1 1 1 
0.04984011582097287 0.011221295862096846 0.7917927475434702 0.6926164599963031 0.4541540689457162 
0.049616480047199325 0.01709927058981033 1 1 1 
0.049615447588639394 0.02289353610267097 1 1 1 
0.049836402676215336 0.028771356254869717 1 1 1 
0.05032374302273668 0.034917520904577566 1 1 1 
0.05637322596793444 0.0074590439480211905 1 1 1 
0.055399824332115044 0.01387940209952602 1 1 1 
0.05522199620716688 0.020000497727480623 1 1 1 
0.0554000171637188 0.02612226275545404 1 1 1 
0.0563677809864192 0.03254397703478381 1 1 1 
