61

0.012848208219749874 0.00741796191072917 1 1 1 
0.013827813674343626 0.013860923229403129 1 1 1 
0.014007722293000778 0.020000020355098746 1 1 1 
0.013827865593592531 0.02613911164206751 1 1 1 
0.012848258401989193 0.03258205989781967 1 1 1 
0.018917806852517215 0.005044865944054844 0.5934641230170011 0.25400563273614407 0.3425279840088372 
0.01941590113956909 0.011209762716623514 0.6900667380011035 0.1413499138087196 0.4434765624621547 
0.019646641064895776 0.01709616754126421 1 1 1 
0.019646623837233455 0.022903812031768715 1 1 1 
0.019415818389397963 0.028790274626149383 1 1 1 
0.01891775656741008 0.03495522942319385 0.36171105890104327 0.32915474461419814 0.2847981846083685 
0.024324060082940344 0.0021306791278933638 0.5934641230170011 0.25400563273614407 0.3425279840088372 
0.024629360915279803 0.008466340022486496 0.6900667380011035 0.1413499138087196 0.4434765624621547 
0.02468544350693324 0.014251848468249707 1 1 1 
0.02470583681893666 0.01999976170153174 1 1 1 
0.024685107511792016 0.025747983055748002 1 1 1 
0.024628958268506692 0.03153367795256102 0.36171105890104327 0.32915474461419814 0.2847981846083685 
0.02432436071229232 0.03786895360897025 1 1 1 
0.02955153367366596 -0.001094000082929096 1 1 1 
0.029659343182358595 0.005562542562158553 1 1 1 
0.029673852154648177 0.011395308499731908 1 1 1 
0.029662488343246342 0.0171247630157411 1 1 1 
0.0296621537241831 0.022874385843225407 1 1 1 
0.02967332377998107 0.028604320955380833 1 1 1 
0.02965856544532247 0.034437524362657214 1 1 1 
0.02955102969013404 0.0410942899158033 1 1 1 
0.03464230814562678 -0.005163094011233195 1 1 1 
0.03464195820273803 0.0024195147952002284 1 1 1 
0.03464160385498373 0.008503573424512733 1 1 1 
0.0346420443931037 0.014249895730479458 1 1 1 
0.03464210102258557 0.019999214458521264 1 1 1 
0.03464143097950478 0.025749077958571703 1 1 1 
0.034641129521752585 0.03149599217416829 1 1 1 
0.034640986909572194 0.03758054222018995 1 1 1 
0.0346409949056002 0.04516412567585006 1 1 1 
0.039732618538446854 -0.001094156086329996 1 1 1 
0.03962379167357378 0.005562241692359706 1 1 1 
0.03960985548232989 0.011394932684267828 1 1 1 
0.03962206866535491 0.017123846747347096 1 1 1 
0.03962116884276035 0.022873769747343623 1 1 1 
0.039609185573458355 0.028603847958963584 1 1 1 
0.03962348343965702 0.03443736741239621 1 1 1 
0.03973094808697733 0.04109428883185811 1 1 1 
0.044958121626018324 0.002130805369072413 1 1 1 
0.044654471893888555 0.008465246326279005 0.2698782451015811 0.3588943530905463 0.1308222696683747 
0.044599055807441106 0.014249225208280016 1 1 1 
0.044577553133205 0.019997819938659286 1 1 1 
0.044597460150088974 0.025746615502717226 1 1 1 
0.04465319603738964 0.031533076927598394 1 1 1 
0.04495767278200692 0.037868920409493884 1 1 1 
0.050368690964741614 0.0050397559699133 1 1 1 
0.0498697372575912 0.011204155282998871 0.2698782451015811 0.3588943530905463 0.1308222696683747 
0.049636234345304314 0.017092087273490406 1 1 1 
0.04963523639664796 0.022900705855054534 1 1 1 
0.04986593789580148 0.028788457881416662 1 1 1 
0.05036512446998621 0.0349557174602338 1 1 1 
0.05643930933213897 0.0074209325488656785 1 1 1 
0.0554536717453722 0.013862559384373271 1 1 1 
0.05527376795686384 0.020000467807358795 1 1 1 
0.05545394219652922 0.026139069304227543 1 1 1 
0.05643384890680559 0.03258212237940037 1 1 1 
