61

0.012897908384725803 0.007446657019713692 1 1 1 
0.01386846081400417 0.013873544921299939 1 1 1 
0.014046776621869483 0.020000020494854193 1 1 1 
0.013868512429492625 0.026126490034131554 1 1 1 
0.012897958744718507 0.032553365382264346 1 1 1 
0.018949064381262586 0.005073759549668691 0.2569406082966876 0.595674390627423 0.5078235294772265 
0.019438230118863767 0.011222646784159525 0.32696466803966484 0.7208685332432718 0.7008942624535176 
0.019661705366436133 0.017101561594096898 1 1 1 
0.019661684528658355 0.022898410153856158 1 1 1 
0.019438135746805186 0.028777388820413512 1 1 1 
0.018948984470676573 0.03492636288609788 0.20077969763454379 0.26076324606564105 0.624816208784486 
0.02434356041496573 0.0021644675040946404 0.2569406082966876 0.595674390627423 0.5078235294772265 
0.024641579965402137 0.008476671732306072 0.32696466803966484 0.7208685332432718 0.7008942624535176 
0.02469254187239776 0.014255930476436703 1 1 1 
0.02471193946679712 0.01999975421879333 1 1 1 
0.024692201556810785 0.025743883233099344 1 1 1 
0.024641159943078975 0.03152333781241711 0.20077969763454379 0.26076324606564105 0.624816208784486 
0.024343886688211695 0.0378351329390292 1 1 1 
0.029560947441137294 -0.001052470103809337 1 1 1 
0.02966219938500239 0.005578265086470881 1 1 1 
0.029676899674550294 0.011400571261759964 1 1 1 
0.029667718676169602 0.017127786514337655 1 1 1 
0.029667406780276663 0.022871354478753388 1 1 1 
0.0296763799894051 0.028599032878555888 1 1 1 
0.029661420893482924 0.03442178622489639 1 1 1 
0.029560421577240214 0.04105277911786993 1 1 1 
0.03464233886689763 -0.005105673653661347 1 1 1 
0.03464194439367084 0.0024452563676603655 1 1 1 
0.034641593920791296 0.008511734753777584 1 1 1 
0.034642031817989645 0.01425594792932539 1 1 1 
0.03464212631917665 0.01999921060513643 1 1 1 
0.03464144744755031 0.025743021301208393 1 1 1 
0.034641141164439136 0.031487796017563595 1 1 1 
0.034640988764669436 0.03755476958360593 1 1 1 
0.03464099431000343 0.04510673689982854 1 1 1 
0.03972318733073717 -0.0010526989017069837 1 1 1 
0.039620946750932126 0.005577955200081405 1 1 1 
0.03960678902173141 0.011400208966408 1 1 1 
0.03961685401867801 0.017126862337503806 1 1 1 
0.03961596027606447 0.022870736812352094 1 1 1 
0.039606159295735965 0.028598550570010296 1 1 1 
0.03962063846892197 0.034421616540506274 1 1 1 
0.0397215552556059 0.0410527758730996 1 1 1 
0.04493862014184111 0.0021646044384272633 1 1 1 
0.04464224671718091 0.008475605214270576 0.33233776185811703 0.4083802744268762 0.40260998897660927 
0.04459196881797797 0.014253319690500338 1 1 1 
0.044571487729894145 0.019997801279754358 1 1 1 
0.044590392859962615 0.02574249951609005 1 1 1 
0.04464100976157115 0.031522705919894624 1 1 1 
0.04493814941594142 0.037835087286387875 1 1 1 
0.050337395625647076 0.005068781318470926 1 1 1 
0.049847366486167756 0.011217099817372672 0.33233776185811703 0.4083802744268762 0.40260998897660927 
0.049621210993484904 0.01709750480164626 1 1 1 
0.04962018697556885 0.02289529760778323 1 1 1 
0.0498436305195798 0.028775541010793 1 1 1 
0.0503339656155364 0.034926891046951215 1 1 1 
0.056389615629262535 0.007449592331086181 1 1 1 
0.055413070509791086 0.013875207991941273 1 1 1 
0.05523470575837691 0.02000049015254171 1 1 1 
0.05541328313167027 0.02612644793254598 1 1 1 
0.056384166478644006 0.03255343744445798 1 1 1 
