61

0.012814648034137998 0.007398585445827605 1 1 1 
0.013800012737491959 0.013852454579494232 1 1 1 
0.013980927639974829 0.020000020243607513 1 1 1 
0.01380006476298046 0.02614758019570353 1 1 1 
0.012814698041342115 0.0326014359622097 1 1 1 
0.01889657019973966 0.00502502202828549 0.716225149814723 0.7477455782567576 0.7692851688544753 
0.019400500352723338 0.011200875871290924 0.12626201065658893 0.7008026668834486 0.5282538355194559 
0.019635902212251078 0.017092475460347274 1 1 1 
0.01963588732516209 0.022907509063524834 1 1 1 
0.019400425065883804 0.02879916254259638 1 1 1 
0.018896537086329403 0.03497505775844294 0.7831142988806815 0.3967689687054127 0.12921365501151116 
0.02431068142483596 0.002107497032633974 0.716225149814723 0.7477455782567576 0.7692851688544753 
0.024620783641802306 0.008458896675327727 0.12626201065658893 0.7008026668834486 0.5282538355194559 
0.024680544399415933 0.014249030765425344 1 1 1 
0.024701748634425025 0.019999766900222055 1 1 1 
0.024680211857538468 0.025750812280293252 1 1 1 
0.024620392725975066 0.03154112624208442 0.7831142988806815 0.3967689687054127 0.12921365501151116 
0.02431096411182084 0.037892157609779785 1 1 1 
0.0295449532370254 -0.001122322418275751 1 1 1 
0.029657172792627747 0.005551409085150813 1 1 1 
0.029671810348148146 0.011391783292475498 1 1 1 
0.02965913482575515 0.017122824866019792 1 1 1 
0.029658785524268514 0.02287632978842805 1 1 1 
0.029671276785619503 0.02860786300424695 1 1 1 
0.029656396938350336 0.03444866715333212 1 1 1 
0.02954446386169643 0.041122599655283296 1 1 1 
0.03464228747303934 -0.00520186713213752 1 1 1 
0.034641966828844725 0.002401757985970102 1 1 1 
0.034641610719601 0.008497940447700353 1 1 1 
0.03464205255946206 0.014246015348431224 1 1 1 
0.034642083963231214 0.01999921739559784 1 1 1 
0.03464142011097041 0.025752961539483497 1 1 1 
0.03464112199422283 0.0315016483508365 1 1 1 
0.03464098581191695 0.03759831861463114 1 1 1 
0.03464099529762415 0.04520287766120288 1 1 1 
0.03973920964756851 -0.0011224304773133208 1 1 1 
0.03962595460373138 0.005551115429037106 1 1 1 
0.03961190953404998 0.011391397234738301 1 1 1 
0.03962541050120171 0.01712191402102139 1 1 1 
0.039624507426851294 0.022875714707147988 1 1 1 
0.03961121292909911 0.028607396568181443 1 1 1 
0.03962564547090386 0.03444851847563532 1 1 1 
0.0397375145881606 0.04112259989959812 1 1 1 
0.04497150318515482 0.002107616954452338 1 1 1 
0.04466305348560017 0.008457783099714903 0.27112809687776174 0.1242467499415712 0.3182388783379053 
0.044603946864721966 0.014246400159468086 1 1 1 
0.04458161611427343 0.019997832599186367 1 1 1 
0.04460233822893372 0.02574945636567336 1 1 1 
0.04466175213173769 0.03154054588998296 1 1 1 
0.04497106786128021 0.03789213201807164 1 1 1 
0.05038995501931329 0.0050198215741255004 1 1 1 
0.049885164408861114 0.0111952298878387 0.27112809687776174 0.1242467499415712 0.3182388783379053 
0.049646946283199656 0.017088380891858088 1 1 1 
0.04964596630009652 0.022904408988943987 1 1 1 
0.049881327060480936 0.028797369860211402 1 1 1 
0.05038629856322834 0.03497551928266401 1 1 1 
0.05647286618792721 0.007401577433680745 1 1 1 
0.05548144344438477 0.01385407228109236 1 1 1 
0.05530056839301932 0.0200004532351984 1 1 1 
0.055481751144065984 0.026147537918435573 1 1 1 
0.05646739923960822 0.03260149325715956 1 1 1 
