61

0.01264200834773113 0.007298909349197605 1 1 1 
0.013653008729513437 0.013809469207979179 1 1 1 
0.013838405324061909 0.020000019511314412 1 1 1 
0.013653060309212841 0.0261905646858596 1 1 1 
0.012642056984420603 0.03270111008147464 1 1 1 
0.018785831895221195 0.00491919672364096 0.25320649173303167 0.7768286597824314 0.20926240858484507 
0.01931740455721692 0.011152921607985821 0.41364650375903944 0.24138942455114082 0.5637662324184556 
0.019573792253050056 0.017073025690759434 1 1 1 
0.019573788162027792 0.022926980442243 1 1 1 
0.01931736303874419 0.028847120979400377 1 1 1 
0.01878585341739278 0.03508083455204997 0.15728694779225827 0.389628583399666 0.35047951945226774 
0.024239522057860185 0.0019841862692708 0.25320649173303167 0.7768286597824314 0.20926240858484507 
0.024572832379251484 0.008414877300859935 0.41364650375903944 0.24138942455114082 0.5637662324184556 
0.024653770711912538 0.014233626274865203 1 1 1 
0.024680679649511247 0.019999794979729035 1 1 1 
0.024653461641378258 0.025766269896069897 1 1 1 
0.02457250112167036 0.03158516316200569 0.15728694779225827 0.389628583399666 0.35047951945226774 
0.024239705941299133 0.03801558210191941 1 1 1 
0.02950860729709084 -0.0012711810546420994 1 1 1 
0.02964295389472402 0.0054879469691667135 1 1 1 
0.029661283712308886 0.011373617121748348 1 1 1 
0.029644084561857402 0.017114132420351997 1 1 1 
0.029643668381479357 0.022885057872757235 1 1 1 
0.02966073194575353 0.028626111927575054 1 1 1 
0.02964220243331739 0.03451216371262586 1 1 1 
0.02950819033588748 0.04127139809004843 1 1 1 
0.03464218277388651 -0.0054013205201884065 1 1 1 
0.03464200199745863 0.0023059232816273027 1 1 1 
0.03464164685952661 0.008467150608378202 1 1 1 
0.03464209032945314 0.014228602936978356 1 1 1 
0.03464199685841197 0.019999236601644415 1 1 1 
0.034641367006938796 0.0257703931359845 1 1 1 
0.034641087276524124 0.0315325530137877 1 1 1 
0.03464098180400089 0.03769423747747202 1 1 1 
0.034640997186322686 0.04540222534026087 1 1 1 
0.03977559682676886 -0.0012710581356968195 1 1 1 
0.03964013819065046 0.005487703052813986 1 1 1 
0.03962249264377881 0.011373166417129836 1 1 1 
0.03964038796200177 0.017113250084096247 1 1 1 
0.03963947756262299 0.022884447860014666 1 1 1 
0.03962166395045242 0.0286256822724927 1 1 1 
0.03963981319257794 0.03451205354986987 1 1 1 
0.03977379183229575 0.041271403784876474 1 1 1 
0.045042701879393215 0.001984284568352696 1 1 1 
0.04471102987885318 0.008413644275058222 0.4488065349175949 0.7226172846898192 0.7513291052535065 
0.0446306747303007 0.014230970430554716 1 1 1 
0.044602555988639464 0.01999789860839382 1 1 1 
0.044629004238680665 0.02576498232154474 1 1 1 
0.04470960510128738 0.0315846856276344 1 1 1 
0.04504232067967575 0.038015587123870084 1 1 1 
0.0505008567574449 0.004913513519913975 1 1 1 
0.04996837269811867 0.011147103020871331 0.4488065349175949 0.7226172846898192 0.7513291052535065 
0.04970892722208304 0.017068875731490653 1 1 1 
0.04970804287481129 0.022923932164679403 1 1 1 
0.04996439782991681 0.02884548553700579 1 1 1 
0.05049676476031953 0.03508116796333301 1 1 1 
0.05664550131817045 0.007301981635394904 1 1 1 
0.055628317467880536 0.013810989894831252 1 1 1 
0.05544312505108016 0.020000384462409926 1 1 1 
0.05562879532296378 0.02619052493066302 1 1 1 
0.05664001273490865 0.03270115626223355 1 1 1 
