755

907.9329833984375 -443.6050109863281 23.578800201416016 0 0 0
-83.31050109863281 28.519500732421875 6.697609901428223 0 0 0
-499.9020080566406 250.76199340820312 -3.031899929046631 0 0 0
-63.97249984741211 -8.524999618530273 15.23840045928955 0 0 0
50.9098014831543 114.5780029296875 -0.4138059914112091 0 0 0
37.75590133666992 -431.822998046875 -114.58499908447266 0 0 0
166.38699340820312 324.2460021972656 32.49689865112305 0 0 0
-129.9969940185547 37.71260070800781 2.1031301021575928 0 0 0
-330.4670104980469 159.97000122070312 -19.633899688720703 0 0 0
-18.099700927734375 34.572601318359375 -10.009400367736816 0 0 0
-260.2650146484375 532.7349853515625 -21.214099884033203 0 0 0
464.864990234375 464.5570068359375 36.350799560546875 0 0 0
-179.80299377441406 1020.1900024414062 6.6820597648620605 0 0 0
5.824679851531982 -6.232570171356201 0.15493300557136536 0 0 0
-161.4510040283203 -91.86669921875 -3.574739933013916 0 0 0
-26.23699951171875 17.714000701904297 -1.4425699710845947 0 0 0
40.17620086669922 -140.55299377441406 54.494300842285156 0 0 0
-500.5409851074219 254.44200134277344 -1.5602999925613403 0 0 0
-110.00599670410156 -447.656005859375 10.561300277709961 0 0 0
-17.33169937133789 63.700801849365234 -2.9741599559783936 0 0 0
401.5719909667969 305.8330078125 4.00609016418457 0 0 0
1004.1900024414062 -917.2119750976562 -45.279300689697266 0 0 0
10.396699905395508 55.811100006103516 -1.3211599588394165 0 0 0
-997.9819946289062 744.25 -12.050800323486328 0 0 0
-5.802949905395508 820.8709716796875 11.911199569702148 0 0 0
190.04800415039062 -228.43099975585938 -4.006959915161133 0 0 0
10.18589973449707 -8.592630386352539 -1.4313000440597534 0 0 0
148.30299377441406 -109.1520004272461 -2.400599956512451 0 0 0
-149.4010009765625 275.0050048828125 -19.237199783325195 0 0 0
60.3583984375 -197.52200317382812 -91.68350219726562 0 0 0
-998.125 744.1680297851562 -12.687700271606445 0 0 0
-468.2919921875 730.9710083007812 40.2151985168457 0 0 0
-496.96600341796875 252.81399536132812 -2.49753999710083 0 0 0
878.6400146484375 610.4849853515625 59.4828987121582 0 0 0
-454.1400146484375 150.05799865722656 41.739898681640625 0 0 0
-213.00100708007812 189.4250030517578 10.530799865722656 0 0 0
356.1210021972656 -641.2109985351562 110.4990005493164 0 0 0
-132.90899658203125 82.70099639892578 24.129499435424805 0 0 0
-134.94000244140625 -38.12260055541992 -46.13140106201172 0 0 0
833.0809936523438 -208.33999633789062 11.72439956665039 0 0 0
173.79100036621094 -1221.530029296875 -28.826400756835938 0 0 0
-279.0329895019531 219.22799682617188 1.2988699674606323 0 0 0
589.7470092773438 -992.9219970703125 5.9755401611328125 0 0 0
-5.629220008850098 821.7960205078125 12.364399909973145 0 0 0
-136.0070037841797 -171.46099853515625 4.271140098571777 0 0 0
237.31100463867188 -191.79600524902344 27.19379997253418 0 0 0
-501.97698974609375 252.50100708007812 -1.6233500242233276 0 0 0
-998.9949951171875 744.7059936523438 -13.810099601745605 0 0 0
-121.09200286865234 -198.85499572753906 4.207550048828125 0 0 0
9.495429992675781 56.940399169921875 0.31558600068092346 0 0 0
-955.3619995117188 -72.09860229492188 178.7570037841797 0 0 0
291.072998046875 -9.314599990844727 -33.01449966430664 0 0 0
106.58100128173828 -13.194899559020996 6.114920139312744 0 0 0
-5.142340183258057 821.2529907226562 10.701899528503418 0 0 0
-499.3070068359375 251.74400329589844 -3.4878199100494385 0 0 0
-176.1269989013672 -320.20001220703125 -70.24909973144531 0 0 0
219.3159942626953 103.5510025024414 19.62459945678711 0 0 0
-848.2620239257812 20.60759925842285 10.724599838256836 0 0 0
-498.40899658203125 253.218994140625 -2.9631800651550293 0 0 0
379.5010070800781 225.39700317382812 -67.61090087890625 0 0 0
256.4119873046875 -607.9650268554688 58.56560134887695 0 0 0
-52.14350128173828 -141.81700134277344 52.85929870605469 0 0 0
-26.55109977722168 -98.19059753417969 16.89699935913086 0 0 0
-222.9669952392578 330.79901123046875 3.1399500370025635 0 0 0
-643.0499877929688 -1653.4300537109375 64.17310333251953 0 0 0
-279.75299072265625 219.42999267578125 1.5575799942016602 0 0 0
204.08200073242188 -168.63699340820312 54.43349838256836 0 0 0
-7.602439880371094 820.4110107421875 10.970800399780273 0 0 0
-46.46799850463867 -32.89030075073242 2.086750030517578 0 0 0
-500.87200927734375 250.73599243164062 -1.6123700141906738 0 0 0
31.321699142456055 80.61609649658203 6.080080032348633 0 0 0
-999.5130004882812 745.5369873046875 -12.3858003616333 0 0 0
-239.85800170898438 241.68800354003906 1.7717399597167969 0 0 0
-679.0999755859375 526.1599731445312 -49.57229995727539 0 0 0
487.5199890136719 526.5289916992188 -232.82200622558594 0 0 0
550.6790161132812 -44.85380172729492 -16.66900062561035 0 0 0
14.410699844360352 54.89699935913086 2.846519947052002 0 0 0
-55.988800048828125 -30.65049934387207 29.328899383544922 0 0 0
-6.115990161895752 822.2940063476562 12.196499824523926 0 0 0
-361.9079895019531 -399.06500244140625 -117.31600189208984 0 0 0
-96.00849914550781 -418.54998779296875 103.81400299072266 0 0 0
-852.2239990234375 -1203.5899658203125 514.6370239257812 0 0 0
109.66600036621094 97.9135971069336 -29.943700790405273 0 0 0
63.65039825439453 -301.3580017089844 15.974699974060059 0 0 0
-184.81900024414062 100.27799987792969 -4.271520137786865 0 0 0
-178.82699584960938 95.03140258789062 40.782901763916016 0 0 0
1087.9100341796875 -1147.9000244140625 -164.96400451660156 0 0 0
48.83110046386719 1320.27001953125 3.888659954071045 0 0 0
-215.4459991455078 242.31900024414062 -0.7308670282363892 0 0 0
95.0551986694336 53.53310012817383 20.040800094604492 0 0 0
241.23699951171875 -94.75769805908203 -1.5069799423217773 0 0 0
239.0489959716797 -84.87220001220703 -16.375699996948242 0 0 0
86.60870361328125 265.3399963378906 17.385499954223633 0 0 0
-216.6999969482422 -1291.72998046875 -210.56700134277344 0 0 0
-999.1920166015625 744.27001953125 -13.333999633789062 0 0 0
-451.7690124511719 1688.199951171875 84.12049865722656 0 0 0
-499.4020080566406 252.41200256347656 -1.4915399551391602 0 0 0
0.061442699283361435 -13.314599990844727 2.4174299240112305 0 0 0
-49.5703010559082 77.4801025390625 -3.0492401123046875 0 0 0
-45.7859992980957 -97.09950256347656 -12.53499984741211 0 0 0
23.236400604248047 1138.1099853515625 161.98199462890625 0 0 0
-6.585619926452637 821.0330200195312 12.689200401306152 0 0 0
-25.5856990814209 266.2919921875 1.7449899911880493 0 0 0
-102.447998046875 -142.4709930419922 21.212900161743164 0 0 0
-4.906839847564697 820.5650024414062 10.848600387573242 0 0 0
-998.7930297851562 286.531005859375 20.728099822998047 0 0 0
-286.6099853515625 -102.23799896240234 48.68470001220703 0 0 0
-299.0849914550781 450.8800048828125 95.56430053710938 0 0 0
9.693619728088379 45.778099060058594 2.989300012588501 0 0 0
2.6287999153137207 -292.06500244140625 110.84400177001953 0 0 0
203.4810028076172 1.7096400260925293 23.75790023803711 0 0 0
-36.12089920043945 28.749099731445312 0.8300449848175049 0 0 0
15.470199584960938 17.134300231933594 2.9148900508880615 0 0 0
-16.409299850463867 -5.893919944763184 -3.540519952774048 0 0 0
-7.076350212097168 821.7559814453125 11.748900413513184 0 0 0
21.247600555419922 8.53396987915039 -1.1019699573516846 0 0 0
239.78599548339844 29.286800384521484 110.30599975585938 0 0 0
-122.48500061035156 630.7639770507812 -17.324800491333008 0 0 0
-366.9800109863281 -590.8359985351562 -54.998199462890625 0 0 0
-5.842909812927246 7.328949928283691 0.6078870296478271 0 0 0
-124.39800262451172 -67.86239624023438 -43.20909881591797 0 0 0
146.03399658203125 -109.35099792480469 -0.5333080291748047 0 0 0
126.5780029296875 -438.5480041503906 -0.7411019802093506 0 0 0
-435.3949890136719 -794.7420043945312 -105.64600372314453 0 0 0
1072.969970703125 -1428.3399658203125 -5.6034698486328125 0 0 0
-555.7630004882812 1683.0899658203125 10.016500473022461 0 0 0
7.875010013580322 26.551599502563477 3.150909900665283 0 0 0
770.0960083007812 -1.209630012512207 90.71829986572266 0 0 0
-279.0060119628906 219.88299560546875 0.4624049961566925 0 0 0
-382.15399169921875 12.035699844360352 53.59159851074219 0 0 0
-59.652801513671875 34.412601470947266 4.905200004577637 0 0 0
-168.5780029296875 -178.23399353027344 12.369600296020508 0 0 0
-998.7269897460938 744.0770263671875 -13.785900115966797 0 0 0
-209.2220001220703 126.29499816894531 -27.879199981689453 0 0 0
106.29499816894531 257.52899169921875 -35.32699966430664 0 0 0
-153.3090057373047 133.0469970703125 19.548799514770508 0 0 0
161.9409942626953 593.6179809570312 85.06189727783203 0 0 0
-279.9530029296875 219.1719970703125 -0.3924880027770996 0 0 0
-5.0194501876831055 820.7969970703125 12.734100341796875 0 0 0
-627.1489868164062 -158.2270050048828 -7.561470031738281 0 0 0
191.1060028076172 -43.747501373291016 18.761999130249023 0 0 0
-714.3709716796875 -200.05299377441406 -165.5449981689453 0 0 0
-998.56298828125 743.969970703125 -12.249799728393555 0 0 0
-47.932498931884766 62.61109924316406 4.2945098876953125 0 0 0
10.7253999710083 55.50019836425781 0.7865740060806274 0 0 0
-499.96600341796875 251.4250030517578 -3.424030065536499 0 0 0
231.26699829101562 13.411999702453613 -46.614200592041016 0 0 0
148.83900451660156 -108.66100311279297 -2.0555899143218994 0 0 0
-999.6270141601562 744.843994140625 -12.122200012207031 0 0 0
10.479599952697754 56.253299713134766 -0.24221499264240265 0 0 0
321.21600341796875 278.7699890136719 -90.75659942626953 0 0 0
-27.079200744628906 59.1614990234375 0.23068200051784515 0 0 0
-556.1119995117188 1683.1099853515625 10.68589973449707 0 0 0
-472.9339904785156 98.84549713134766 4.046239852905273 0 0 0
-25.166500091552734 -217.65499877929688 -56.48609924316406 0 0 0
346.62799072265625 233.41900634765625 0.5212050080299377 0 0 0
-997.9979858398438 745.72998046875 -13.20110034942627 0 0 0
266.4859924316406 33.75320053100586 -21.531700134277344 0 0 0
146.9010009765625 -45.26729965209961 -48.018798828125 0 0 0
-502.5220031738281 327.2760009765625 79.27940368652344 0 0 0
-30.486600875854492 58.21289825439453 10.598099708557129 0 0 0
408.947998046875 568.0260009765625 0.324398010969162 0 0 0
-278.39801025390625 220.3090057373047 0.6353279948234558 0 0 0
861.3829956054688 -207.8159942626953 -35.64059829711914 0 0 0
-8.286840438842773 821.2219848632812 11.637100219726562 0 0 0
-173.17999267578125 -246.3489990234375 -17.84510040283203 0 0 0
-498.677001953125 252.3679962158203 -2.4135499000549316 0 0 0
58.97930145263672 -19.632099151611328 16.612499237060547 0 0 0
-500.6409912109375 252.2830047607422 -2.1930999755859375 0 0 0
10.10789966583252 -175.3459930419922 62.01530075073242 0 0 0
-44.24549865722656 -35.917198181152344 3.5951499938964844 0 0 0
-8.562800407409668 36.46670150756836 0.5784119963645935 0 0 0
-1075.1300048828125 -289.6669921875 26.720399856567383 0 0 0
-6.4728498458862305 819.9869995117188 12.669400215148926 0 0 0
-155.97799682617188 -65.79620361328125 -26.297199249267578 0 0 0
719.85400390625 -252.54800415039062 -0.17076900601387024 0 0 0
-998.4920043945312 746.27197265625 -12.498600006103516 0 0 0
-6.950699806213379 818.8579711914062 11.894100189208984 0 0 0
-665.2119750976562 668.239013671875 30.819799423217773 0 0 0
-28.766300201416016 0.9565960168838501 -12.003800392150879 0 0 0
-264.4960021972656 172.8280029296875 -63.45119857788086 0 0 0
95.44159698486328 -607.8170166015625 -75.55049896240234 0 0 0
-6.156129837036133 819.4639892578125 11.308199882507324 0 0 0
-130.8800048828125 435.86700439453125 2.0803799629211426 0 0 0
-215.0189971923828 256.7019958496094 31.961599349975586 0 0 0
-998.5780029296875 744.1810302734375 -13.156700134277344 0 0 0
430.57598876953125 72.09439849853516 2.6463799476623535 0 0 0
2.4036600589752197 117.01899719238281 14.224499702453613 0 0 0
-91.70580291748047 -267.27899169921875 -1.7171599864959717 0 0 0
-20.796300888061523 58.165401458740234 2.4580600261688232 0 0 0
151.8300018310547 -192.3300018310547 19.73509979248047 0 0 0
-8.530540466308594 -48.851600646972656 -9.983499526977539 0 0 0
-361.56201171875 -83.66889953613281 -26.581100463867188 0 0 0
-51.9547004699707 10.191399574279785 3.2987799644470215 0 0 0
-200.04800415039062 -26.28499984741211 -18.615699768066406 0 0 0
-499.3909912109375 253.16600036621094 -2.744800090789795 0 0 0
-302.9989929199219 310.82598876953125 -3.3080899715423584 0 0 0
1652.469970703125 552.5700073242188 -206.01699829101562 0 0 0
-117.27799987792969 62.60860061645508 -1.8583500385284424 0 0 0
338.92498779296875 -1103.2900390625 -8.290760040283203 0 0 0
-24.46969985961914 46.9734001159668 -2.6004300117492676 0 0 0
-407.2669982910156 -29.881200790405273 -29.81399917602539 0 0 0
-547.6519775390625 1934.06005859375 49.15489959716797 0 0 0
-784.7369995117188 657.4849853515625 45.484798431396484 0 0 0
12.430999755859375 56.99879837036133 -0.8777909874916077 0 0 0
-5.6447601318359375 821.4760131835938 11.06470012664795 0 0 0
22.594499588012695 14.156000137329102 3.2352700233459473 0 0 0
-410.20599365234375 673.3280029296875 -69.14209747314453 0 0 0
-20.39459991455078 -77.37629699707031 2.506779909133911 0 0 0
570.68798828125 30.879100799560547 -75.42980194091797 0 0 0
-498.6159973144531 250.781005859375 -2.021009922027588 0 0 0
223.5679931640625 -239.53500366210938 -20.584800720214844 0 0 0
-387.8590087890625 -105.54399871826172 3.4751698970794678 0 0 0
146.6490020751953 -108.19000244140625 -2.3318099975585938 0 0 0
-348.63800048828125 30.95359992980957 -16.18720054626465 0 0 0
31.404399871826172 767.739990234375 -172.16299438476562 0 0 0
204.51199340820312 76.86190032958984 -54.07889938354492 0 0 0
24.199899673461914 15.444199562072754 4.410039901733398 0 0 0
14.603300094604492 -49.34040069580078 16.84309959411621 0 0 0
-278.7640075683594 219.43699645996094 -0.15407900512218475 0 0 0
-6.390039920806885 819.2490234375 11.851099967956543 0 0 0
-409.9700012207031 64.17720031738281 12.020999908447266 0 0 0
182.08799743652344 209.05299377441406 -135.43699645996094 0 0 0
-664.0260009765625 349.07000732421875 56.35649871826172 0 0 0
-7.710720062255859 820.8770141601562 11.541199684143066 0 0 0
-168.54800415039062 1075.2099609375 18.620399475097656 0 0 0
-499.0249938964844 250.8280029296875 -2.7078499794006348 0 0 0
55.17319869995117 -139.4199981689453 -1.9877300262451172 0 0 0
147.3800048828125 -110.12200164794922 -1.3217600584030151 0 0 0
1131.93994140625 1577.1600341796875 190.42799377441406 0 0 0
-7.386740207672119 820.27099609375 13.17609977722168 0 0 0
-98.32029724121094 64.8125 36.89139938354492 0 0 0
-49.43119812011719 -82.23789978027344 -5.447519779205322 0 0 0
-49.506500244140625 -40.53670120239258 7.630239963531494 0 0 0
-997.47998046875 744.39501953125 -13.72659969329834 0 0 0
487.1210021972656 -503.63800048828125 24.305999755859375 0 0 0
11.308099746704102 19.313100814819336 6.249959945678711 0 0 0
-80.23570251464844 86.60890197753906 -56.279598236083984 0 0 0
-997.9509887695312 744.4180297851562 -14.674400329589844 0 0 0
153.56399536132812 17.436800003051758 -1.3026399612426758 0 0 0
-183.0279998779297 -290.9280090332031 91.75890350341797 0 0 0
-18.522199630737305 -200.99099731445312 14.358599662780762 0 0 0
-27.969999313354492 -6.071149826049805 -2.2360401153564453 0 0 0
-557.2869873046875 1683.0799560546875 11.065699577331543 0 0 0
448.6029968261719 778.8980102539062 97.02739715576172 0 0 0
992.5360107421875 -760.8369750976562 102.49800109863281 0 0 0
-7.471920013427734 821.968017578125 12.220600128173828 0 0 0
-61.8473014831543 -254.19500732421875 53.9098014831543 0 0 0
138.29600524902344 1113.8800048828125 63.98189926147461 0 0 0
-1492.5 -1330.0 -121.18499755859375 0 0 0
486.10198974609375 183.87899780273438 -12.10509967803955 0 0 0
-548.6510009765625 -1500.699951171875 -614.7990112304688 0 0 0
-705.9580078125 774.1799926757812 50.39580154418945 0 0 0
215.8560028076172 -476.32501220703125 51.16559982299805 0 0 0
1090.8800048828125 -154.2740020751953 86.822998046875 0 0 0
146.18600463867188 -109.75900268554688 -1.615820050239563 0 0 0
-5.370059967041016 820.7039794921875 10.300700187683105 0 0 0
5.499720096588135 26.052799224853516 10.343500137329102 0 0 0
-44.422298431396484 41.91859817504883 2.957789897918701 0 0 0
-996.9039916992188 744.5369873046875 -12.141900062561035 0 0 0
-754.6649780273438 753.7030029296875 42.3578987121582 0 0 0
1.6950500011444092 -150.7169952392578 33.15679931640625 0 0 0
3.4226698875427246 -154.38900756835938 0.7485449910163879 0 0 0
435.7049865722656 348.1440124511719 28.90239906311035 0 0 0
590.0819702148438 587.1329956054688 0.5159639716148376 0 0 0
148.23800659179688 -109.7699966430664 -0.7455170154571533 0 0 0
11.650400161743164 55.85449981689453 -0.2009740024805069 0 0 0
-39.909400939941406 -33.35580062866211 -12.328399658203125 0 0 0
-555.2479858398438 1683.800048828125 10.40429973602295 0 0 0
320.6809997558594 -739.2919921875 11.896499633789062 0 0 0
-279.6130065917969 220.1959991455078 0.4257600009441376 0 0 0
385.843994140625 -63.289398193359375 31.54560089111328 0 0 0
921.7269897460938 124.34400177001953 -45.122100830078125 0 0 0
-283.9150085449219 515.6589965820312 32.17649841308594 0 0 0
-592.4520263671875 -641.323974609375 -29.050800323486328 0 0 0
-997.25 744.5280151367188 -14.362799644470215 0 0 0
-763.06201171875 -171.0800018310547 -93.75150299072266 0 0 0
-901.0819702148438 -375.2950134277344 -146.25999450683594 0 0 0
-327.9989929199219 -14.940299987792969 6.23799991607666 0 0 0
-13.488900184631348 17.765399932861328 -0.20626799762248993 0 0 0
99.18080139160156 161.5279998779297 -15.819700241088867 0 0 0
90.34500122070312 -58.21540069580078 18.309099197387695 0 0 0
-147.2790069580078 -44.21580123901367 -38.32979965209961 0 0 0
-132.15499877929688 -10.566699981689453 -14.730799674987793 0 0 0
-577.5850219726562 376.99798583984375 18.50979995727539 0 0 0
9.950739860534668 56.589500427246094 0.8653879761695862 0 0 0
325.0870056152344 -435.3739929199219 82.38610076904297 0 0 0
-200.01600646972656 -161.52099609375 -23.427200317382812 0 0 0
-103.75399780273438 87.30619812011719 7.452400207519531 0 0 0
19.455400466918945 15.361499786376953 -5.345799922943115 0 0 0
-235.50399780273438 -162.4929962158203 -87.49240112304688 0 0 0
-48.02159881591797 59.88970184326172 -1.9564900398254395 0 0 0
-674.8060302734375 -127.88099670410156 2.9625298976898193 0 0 0
-49.242698669433594 137.4080047607422 -16.91080093383789 0 0 0
-74.64779663085938 -26.764799118041992 -28.344499588012695 0 0 0
-756.3289794921875 486.7139892578125 36.90660095214844 0 0 0
-245.17799377441406 -58.20119857788086 41.91350173950195 0 0 0
43.05979919433594 57.707698822021484 11.560199737548828 0 0 0
-500.5610046386719 253.3990020751953 -2.3101799488067627 0 0 0
-76.1052017211914 395.135986328125 -41.99639892578125 0 0 0
146.91900634765625 -110.07499694824219 -0.6499450206756592 0 0 0
-251.0070037841797 402.50799560546875 155.82699584960938 0 0 0
-279.0450134277344 220.72000122070312 1.6541199684143066 0 0 0
148.0070037841797 -110.43699645996094 -0.8731939792633057 0 0 0
147.03900146484375 -110.01699829101562 -2.389090061187744 0 0 0
295.91400146484375 -1205.77001953125 33.82099914550781 0 0 0
-1312.25 210.5590057373047 -282.34600830078125 0 0 0
304.87200927734375 -71.55339813232422 79.5947036743164 0 0 0
-491.47100830078125 -231.73699951171875 9.711910247802734 0 0 0
-1838.47998046875 -495.39300537109375 287.8800048828125 0 0 0
-397.552001953125 156.54600524902344 -69.04129791259766 0 0 0
-480.73199462890625 214.41299438476562 -118.55599975585938 0 0 0
233.3990020751953 208.71400451660156 -6.909540176391602 0 0 0
-151.75900268554688 129.01100158691406 62.25790023803711 0 0 0
-125.7979965209961 -167.2270050048828 -5.112400054931641 0 0 0
-753.489013671875 -380.86700439453125 34.804500579833984 0 0 0
-1181.93994140625 90.6052017211914 101.76899719238281 0 0 0
-446.27301025390625 -1377.719970703125 -396.43499755859375 0 0 0
148.8509979248047 -547.8480224609375 17.42449951171875 0 0 0
-101.052001953125 131.39999389648438 6.787799835205078 0 0 0
147.02000427246094 -109.65499877929688 -1.095770001411438 0 0 0
-264.7799987792969 -365.3680114746094 6.673089981079102 0 0 0
13.823699951171875 87.43350219726562 1.2221299409866333 0 0 0
-278.3429870605469 218.85400390625 0.14530999958515167 0 0 0
-5.615379810333252 822.0399780273438 11.724499702453613 0 0 0
144.51300048828125 1438.949951171875 31.863100051879883 0 0 0
-180.3820037841797 -310.0159912109375 -1.624250054359436 0 0 0
-498.05999755859375 251.2469940185547 -1.844249963760376 0 0 0
8.317139625549316 49.09619903564453 0.2896449863910675 0 0 0
1313.9200439453125 775.9669799804688 44.66400146484375 0 0 0
380.07501220703125 132.39999389648438 -12.817099571228027 0 0 0
-27.64389991760254 29.277799606323242 -2.313509941101074 0 0 0
147.07000732421875 -107.76000213623047 -0.07586760073900223 0 0 0
85.44920349121094 561.5560302734375 -26.801599502563477 0 0 0
-634.8720092773438 -151.16799926757812 -55.84379959106445 0 0 0
-6.66825008392334 819.6950073242188 10.981800079345703 0 0 0
-56.44459915161133 67.91079711914062 -9.957209587097168 0 0 0
-51.8916015625 -89.8927001953125 -39.20719909667969 0 0 0
319.0140075683594 93.16130065917969 1.826640009880066 0 0 0
-297.0299987792969 -729.291015625 -98.31500244140625 0 0 0
-372.65899658203125 26.2637996673584 -5.402520179748535 0 0 0
9.982850074768066 55.84429931640625 -0.009145990014076233 0 0 0
-812.8939819335938 -841.0869750976562 -17.82360076904297 0 0 0
439.59100341796875 113.31999969482422 1.8426100015640259 0 0 0
15.13379955291748 6.824329853057861 5.10306978225708 0 0 0
-142.20599365234375 36.289798736572266 28.38960075378418 0 0 0
10.804800033569336 57.241798400878906 -0.47879698872566223 0 0 0
89.9072036743164 -62.417198181152344 -7.272119998931885 0 0 0
146.7760009765625 -109.33399963378906 -2.0983800888061523 0 0 0
766.364013671875 465.0169982910156 -5.737209796905518 0 0 0
474.5419921875 186.30299377441406 13.707099914550781 0 0 0
-7.394489765167236 819.8350219726562 11.918800354003906 0 0 0
-59.32099914550781 68.43289947509766 -1.1159100532531738 0 0 0
-499.8580017089844 251.93499755859375 -1.5826300382614136 0 0 0
-999.1220092773438 745.2650146484375 -12.87660026550293 0 0 0
-131.26646423339844 -187.94427490234375 -1.9943315982818604 0 0 0
-132.2047882080078 -187.7329864501953 -0.7981993556022644 0 0 0
-129.9901580810547 -188.09390258789062 -0.008729095570743084 0 0 0
-135.58526611328125 -187.52682495117188 -0.7787748575210571 0 0 0
-134.12506103515625 -188.91146850585938 2.5038652420043945 0 0 0
-134.92034912109375 -191.06430053710938 1.417683720588684 0 0 0
-133.10665893554688 -189.6126251220703 0.784944474697113 0 0 0
-132.15635681152344 -188.82957458496094 0.9789997935295105 0 0 0
-132.0420379638672 -187.3769989013672 -0.3782753348350525 0 0 0
-134.5203399658203 -189.6461181640625 -0.05736444890499115 0 0 0
-133.19664001464844 -189.7460479736328 -1.363330602645874 0 0 0
-132.16539001464844 -187.37405395507812 -1.3174259662628174 0 0 0
-133.70826721191406 -187.29360961914062 -1.3230650424957275 0 0 0
-130.6343231201172 -189.2503204345703 -0.6704744696617126 0 0 0
-131.4709930419922 -189.23544311523438 -2.2809112071990967 0 0 0
-132.64007568359375 -188.05401611328125 -0.6861485838890076 0 0 0
-134.0098114013672 -189.74806213378906 -0.9380990862846375 0 0 0
-132.00982666015625 -188.7705841064453 0.461765855550766 0 0 0
-131.08287048339844 -189.3177490234375 1.7322206497192383 0 0 0
-132.0840301513672 -189.0504913330078 -2.081233263015747 0 0 0
-136.05270385742188 -190.06814575195312 -0.2183867245912552 0 0 0
-134.1919708251953 -189.9866180419922 -0.4794125556945801 0 0 0
-131.9156951904297 -189.5170135498047 -0.8649113178253174 0 0 0
-133.85946655273438 -188.47911071777344 -0.10518699884414673 0 0 0
-135.48951721191406 -188.8502960205078 -0.9094295501708984 0 0 0
-133.80523681640625 -187.82456970214844 -0.28222835063934326 0 0 0
-133.3117218017578 -188.27186584472656 -1.6653004884719849 0 0 0
-135.0631561279297 -188.08694458007812 -1.9039740562438965 0 0 0
-131.72731018066406 -189.96990966796875 -0.7526281476020813 0 0 0
-135.47012329101562 -186.9803009033203 0.18284134566783905 0 0 0
-134.02847290039062 -188.85052490234375 -0.3732910752296448 0 0 0
-134.8819580078125 -189.40411376953125 -0.22574105858802795 0 0 0
-133.7353057861328 -189.03662109375 -0.8270083665847778 0 0 0
-133.8310546875 -188.1853790283203 -1.8797435760498047 0 0 0
-131.70657348632812 -192.1732177734375 0.8378162384033203 0 0 0
-133.59518432617188 -191.88858032226562 1.185929775238037 0 0 0
-131.04928588867188 -188.3831329345703 -0.20840081572532654 0 0 0
-134.6441192626953 -187.26483154296875 0.37293219566345215 0 0 0
-132.65403747558594 -187.69235229492188 -0.4210096299648285 0 0 0
-131.0288848876953 -186.9229278564453 -0.8804566860198975 0 0 0
-134.4405059814453 -190.6438446044922 -0.1128280758857727 0 0 0
-135.6255340576172 -188.65869140625 1.037584900856018 0 0 0
-131.3064727783203 -189.63771057128906 0.9497880339622498 0 0 0
-131.9998779296875 -189.96322631835938 0.229173943400383 0 0 0
-133.95440673828125 -189.46507263183594 1.5972639322280884 0 0 0
-133.54083251953125 -187.23541259765625 -0.4066312909126282 0 0 0
-134.7580108642578 -189.0612030029297 -1.0114988088607788 0 0 0
-130.9653778076172 -190.25440979003906 -1.737898349761963 0 0 0
-134.16567993164062 -190.09263610839844 -2.1150031089782715 0 0 0
-132.2379608154297 -188.3248748779297 0.7205665707588196 0 0 0
-129.9201202392578 -188.1885223388672 -0.6432127952575684 0 0 0
-134.84344482421875 -187.35958862304688 0.9208635687828064 0 0 0
-132.28274536132812 -189.16543579101562 1.6552425622940063 0 0 0
-132.11451721191406 -192.26815795898438 0.05073108151555061 0 0 0
-133.13824462890625 -188.53521728515625 -0.3775169253349304 0 0 0
-131.45941162109375 -191.70095825195312 0.39650627970695496 0 0 0
-134.48330688476562 -189.8144989013672 0.7655513882637024 0 0 0
-132.6964111328125 -189.35537719726562 1.832505702972412 0 0 0
-131.63194274902344 -187.71998596191406 -1.618835687637329 0 0 0
-132.6382293701172 -189.05728149414062 -2.3940818309783936 0 0 0
-132.2558135986328 -187.94285583496094 1.0749168395996094 0 0 0
-133.01158142089844 -188.72824096679688 0.4007129371166229 0 0 0
-129.9517059326172 -187.65625 0.5056444406509399 0 0 0
-133.00778198242188 -189.19760131835938 0.46966344118118286 0 0 0
-131.68849182128906 -191.03219604492188 -1.5873405933380127 0 0 0
-130.9044189453125 -190.97531127929688 0.5405880212783813 0 0 0
-134.1726531982422 -188.95957946777344 1.5124627351760864 0 0 0
-133.7532958984375 -188.57521057128906 -2.2386202812194824 0 0 0
-133.79971313476562 -190.72528076171875 -1.3560768365859985 0 0 0
-134.21461486816406 -189.4441375732422 0.6584993004798889 0 0 0
-131.7847137451172 -188.03578186035156 -0.13105450570583344 0 0 0
-132.33253479003906 -188.21600341796875 -0.14814752340316772 0 0 0
-132.17913818359375 -189.95677185058594 -1.0625393390655518 0 0 0
-132.90988159179688 -188.74462890625 1.929429292678833 0 0 0
-134.05154418945312 -188.88735961914062 0.5159146189689636 0 0 0
-133.22158813476562 -188.3526153564453 0.8801083564758301 0 0 0
-132.35467529296875 -191.52066040039062 1.582121729850769 0 0 0
-132.2318572998047 -190.71974182128906 0.6962842345237732 0 0 0
-132.30117797851562 -190.60000610351562 -0.8739454746246338 0 0 0
-132.6038055419922 -188.9881591796875 1.1020256280899048 0 0 0
-131.1680145263672 -189.35140991210938 -1.6268105506896973 0 0 0
-132.90797424316406 -190.26145935058594 0.08765361458063126 0 0 0
-132.2488555908203 -189.7039794921875 -0.11987944692373276 0 0 0
-134.3450927734375 -191.156494140625 0.9706831574440002 0 0 0
-132.42369079589844 -189.2490997314453 -1.6811846494674683 0 0 0
-134.2725372314453 -188.63671875 1.8455796241760254 0 0 0
-132.22213745117188 -187.5758056640625 0.6220870018005371 0 0 0
-131.90025329589844 -189.4183349609375 1.3289999961853027 0 0 0
-132.21566772460938 -192.031005859375 0.586559534072876 0 0 0
-132.81211853027344 -189.56886291503906 -0.4032202959060669 0 0 0
-130.9708709716797 -189.0647430419922 -2.017873525619507 0 0 0
-132.72479248046875 -190.1232147216797 -0.392259418964386 0 0 0
-132.29959106445312 -188.50013732910156 1.9980334043502808 0 0 0
-133.5655975341797 -189.517578125 1.1422086954116821 0 0 0
-133.3587646484375 -188.17286682128906 -2.2367005348205566 0 0 0
-132.74473571777344 -186.75027465820312 0.3622567057609558 0 0 0
-134.7123565673828 -190.11880493164062 -0.19180823862552643 0 0 0
-132.91322326660156 -191.4015350341797 0.6764582395553589 0 0 0
-131.39532470703125 -188.72373962402344 0.9775820970535278 0 0 0
-130.53607177734375 -188.2045135498047 1.0976743698120117 0 0 0
-134.6994171142578 -188.64553833007812 0.36932653188705444 0 0 0
-134.32089233398438 -189.36146545410156 -1.4258698225021362 0 0 0
-134.03001403808594 -189.31874084472656 1.0925294160842896 0 0 0
-136.4718780517578 -188.95700073242188 -0.7356109619140625 0 0 0
-132.37844848632812 -187.4905548095703 -1.6967853307724 0 0 0
-130.8941650390625 -187.82554626464844 1.647614598274231 0 0 0
-133.56434631347656 -187.27691650390625 1.486185073852539 0 0 0
-130.45599365234375 -190.73150634765625 -0.12375165522098541 0 0 0
-133.25588989257812 -189.07835388183594 -0.46271711587905884 0 0 0
-135.14427185058594 -189.722900390625 -1.8096481561660767 0 0 0
-132.6028289794922 -192.5434112548828 -0.2198624312877655 0 0 0
-132.93687438964844 -186.214599609375 0.7122169733047485 0 0 0
-133.52175903320312 -189.84950256347656 -0.5429297685623169 0 0 0
-133.151123046875 -186.73748779296875 -1.0960103273391724 0 0 0
-131.2143096923828 -187.27783203125 -1.801055669784546 0 0 0
-132.31362915039062 -190.99234008789062 -1.3626333475112915 0 0 0
-131.69442749023438 -187.8938446044922 1.518008828163147 0 0 0
-133.41403198242188 -189.45176696777344 0.36975565552711487 0 0 0
-132.29176330566406 -190.5835723876953 1.1877399682998657 0 0 0
-133.531982421875 -188.99993896484375 0.6808428168296814 0 0 0
-131.5644073486328 -189.78857421875 1.5737841129302979 0 0 0
-130.8932342529297 -191.45838928222656 0.036160681396722794 0 0 0
-135.80325317382812 -188.60665893554688 -0.6623325347900391 0 0 0
-135.4715576171875 -190.76739501953125 0.2766094505786896 0 0 0
-132.92974853515625 -190.5807647705078 2.050873279571533 0 0 0
-133.7075958251953 -190.4356689453125 0.4478258490562439 0 0 0
-131.79107666015625 -187.72080993652344 -1.1402655839920044 0 0 0
-131.90843200683594 -190.9414825439453 1.1055961847305298 0 0 0
-133.38348388671875 -188.12193298339844 2.7381179332733154 0 0 0
-132.8872833251953 -189.7886962890625 1.871801733970642 0 0 0
-132.77549743652344 -188.83255004882812 -1.7047170400619507 0 0 0
-132.93316650390625 -190.1999969482422 -2.590327501296997 0 0 0
-132.89744567871094 -186.52700805664062 -0.656326174736023 0 0 0
-133.28155517578125 -189.059326171875 0.11246585100889206 0 0 0
-132.3311309814453 -189.38714599609375 1.1089621782302856 0 0 0
-130.5441131591797 -188.51145935058594 0.007487334311008453 0 0 0
-133.6622772216797 -188.80189514160156 1.7464317083358765 0 0 0
-133.37596130371094 -191.20152282714844 -1.993411898612976 0 0 0
-131.1066131591797 -188.11505126953125 0.654701828956604 0 0 0
-133.7535858154297 -189.00807189941406 0.22881989181041718 0 0 0
-131.76455688476562 -187.5814971923828 0.8611042499542236 0 0 0
-134.36032104492188 -188.20323181152344 -0.9587669968605042 0 0 0
-130.11819458007812 -188.81951904296875 -1.2218961715698242 0 0 0
-133.46810913085938 -188.42747497558594 -1.1225628852844238 0 0 0
-130.55999755859375 -187.26539611816406 -0.7282252907752991 0 0 0
-134.4195556640625 -189.50148010253906 -0.5242330431938171 0 0 0
-130.6592559814453 -190.31686401367188 0.2597934305667877 0 0 0
-134.8539276123047 -189.78536987304688 -0.6135122776031494 0 0 0
-131.14376831054688 -190.5421600341797 2.5112733840942383 0 0 0
-131.61756896972656 -189.11212158203125 -1.1581014394760132 0 0 0
-131.73849487304688 -189.06378173828125 -0.41416671872138977 0 0 0
-134.03199768066406 -189.8615264892578 1.1433309316635132 0 0 0
-133.5817413330078 -188.04876708984375 0.5327935814857483 0 0 0
-131.75146484375 -191.00497436523438 0.48339203000068665 0 0 0
-130.4195556640625 -187.5336456298828 -0.14770928025245667 0 0 0
-133.53131103515625 -189.9983673095703 2.298121690750122 0 0 0
-132.67535400390625 -187.68020629882812 0.924869954586029 0 0 0
-134.22642517089844 -186.33738708496094 1.2245721817016602 0 0 0
-133.3793487548828 -190.56919860839844 0.798636794090271 0 0 0
-131.5542755126953 -188.46035766601562 0.5445482134819031 0 0 0
-136.24229431152344 -187.7230987548828 -1.053475260734558 0 0 0
-135.09608459472656 -188.3701171875 -0.02791552059352398 0 0 0
-132.79954528808594 -191.03530883789062 -2.3257455825805664 0 0 0
-132.3055877685547 -186.86529541015625 -0.4738548696041107 0 0 0
-132.64356994628906 -187.1387939453125 1.8802067041397095 0 0 0
-133.37054443359375 -187.84664916992188 0.04354361444711685 0 0 0
-131.09942626953125 -190.1079864501953 -0.19514118134975433 0 0 0
-133.17428588867188 -187.31842041015625 2.438497304916382 0 0 0
-132.30087280273438 -189.93978881835938 1.1272119283676147 0 0 0
-131.90504455566406 -186.19540405273438 0.07473620772361755 0 0 0
-131.78855895996094 -188.85011291503906 -0.8127097487449646 0 0 0
-132.03538513183594 -188.00830078125 2.14810848236084 0 0 0
-133.13211059570312 -190.43212890625 1.4796433448791504 0 0 0
-132.4746551513672 -189.76829528808594 -0.5873913168907166 0 0 0
-133.22593688964844 -190.42840576171875 -0.4067442715167999 0 0 0
-134.5563507080078 -191.8457794189453 1.2322603464126587 0 0 0
-134.81564331054688 -189.1116485595703 -1.8321949243545532 0 0 0
-132.2242889404297 -190.84188842773438 1.7744364738464355 0 0 0
-135.38510131835938 -188.8726043701172 -2.125239372253418 0 0 0
-131.9480743408203 -190.30137634277344 1.6341710090637207 0 0 0
-131.58856201171875 -189.36868286132812 0.020481502637267113 0 0 0
-131.54319763183594 -187.61929321289062 -0.2687108516693115 0 0 0
-134.16790771484375 -186.49700927734375 -1.2447655200958252 0 0 0
-134.3243408203125 -187.80470275878906 0.04048644378781319 0 0 0
-130.92718505859375 -190.93023681640625 -1.627590298652649 0 0 0
-133.60169982910156 -186.4755096435547 -0.8045658469200134 0 0 0
-133.49050903320312 -186.81729125976562 0.015879906713962555 0 0 0
-132.29403686523438 -191.43972778320312 0.666283130645752 0 0 0
-133.6940155029297 -188.49871826171875 -0.595170259475708 0 0 0
-134.95668029785156 -186.60723876953125 0.6658031344413757 0 0 0
-133.60984802246094 -189.05667114257812 1.2541460990905762 0 0 0
-134.89004516601562 -187.05197143554688 -0.6644992828369141 0 0 0
-132.39805603027344 -186.25576782226562 0.8176870942115784 0 0 0
-134.2024383544922 -186.77122497558594 -0.6901463270187378 0 0 0
-133.56292724609375 -191.13319396972656 -0.02562299184501171 0 0 0
-132.02149963378906 -189.78875732421875 0.7277266979217529 0 0 0
-132.629150390625 -188.38778686523438 -1.0800081491470337 0 0 0
-134.34559631347656 -187.2583770751953 -1.6087805032730103 0 0 0
-130.8700714111328 -191.93409729003906 0.8780400156974792 0 0 0
-131.47396850585938 -190.86105346679688 -0.4164535403251648 0 0 0
-130.5360870361328 -188.18177795410156 0.4293307065963745 0 0 0
-132.88400268554688 -189.38461303710938 -1.6368160247802734 0 0 0
-132.967529296875 -188.13433837890625 -0.41623643040657043 0 0 0
-134.40765380859375 -191.7017822265625 0.3006497919559479 0 0 0
-131.2956085205078 -191.00433349609375 0.12851804494857788 0 0 0
-132.50978088378906 -189.34628295898438 -0.8369110226631165 0 0 0
-130.86581420898438 -188.03050231933594 -0.6654924750328064 0 0 0
-131.56582641601562 -190.52146911621094 0.009830922819674015 0 0 0
-131.8802490234375 -188.0821075439453 0.5489331483840942 0 0 0
-133.17298889160156 -191.87371826171875 -0.7302079796791077 0 0 0
-134.22230529785156 -187.7191925048828 0.6145288348197937 0 0 0
-131.17047119140625 -190.11874389648438 -1.0424262285232544 0 0 0
-132.8491973876953 -190.00692749023438 1.1641662120819092 0 0 0
-131.5779571533203 -188.3855743408203 -0.9317343831062317 0 0 0
-133.2021026611328 -188.2492218017578 1.427809238433838 0 0 0
-133.21656799316406 -190.52781677246094 0.3621338903903961 0 0 0
-131.96620178222656 -189.2769012451172 0.6349334120750427 0 0 0
-134.91722106933594 -190.49078369140625 0.13292567431926727 0 0 0
-133.00970458984375 -187.26608276367188 0.9496468305587769 0 0 0
-131.7864990234375 -190.20811462402344 -1.310131549835205 0 0 0
-134.29261779785156 -187.80406188964844 -0.5121158361434937 0 0 0
-134.36671447753906 -188.50384521484375 -2.321091651916504 0 0 0
-134.1551971435547 -190.2406005859375 -1.1798409223556519 0 0 0
-132.16319274902344 -189.8048858642578 2.8056790828704834 0 0 0
-134.45635986328125 -186.1074981689453 -0.5991301536560059 0 0 0
-134.36898803710938 -190.9272918701172 -1.6466937065124512 0 0 0
-132.00978088378906 -189.5229034423828 -0.4250754714012146 0 0 0
-130.90682983398438 -189.70626831054688 -1.364200472831726 0 0 0
-132.2098388671875 -189.0929718017578 -0.661749005317688 0 0 0
-134.76239013671875 -190.14059448242188 -2.265498161315918 0 0 0
-133.51284790039062 -189.65078735351562 -1.0739601850509644 0 0 0
-133.61607360839844 -190.06442260742188 -1.8852741718292236 0 0 0
-133.777099609375 -191.38011169433594 1.2977477312088013 0 0 0
-134.5542449951172 -189.31884765625 0.3214443027973175 0 0 0
-131.5404815673828 -189.55543518066406 -0.48887553811073303 0 0 0
-131.77310180664062 -189.11000061035156 1.018083095550537 0 0 0
-133.1692657470703 -189.1565399169922 1.5824921131134033 0 0 0
-132.13385009765625 -188.33871459960938 0.23108312487602234 0 0 0
-134.2496337890625 -191.33145141601562 -1.258796215057373 0 0 0
-133.550537109375 -189.41400146484375 -0.6522470712661743 0 0 0
-132.470703125 -188.6922607421875 0.09842636436223984 0 0 0
-132.3276824951172 -188.19200134277344 1.6061558723449707 0 0 0
-132.80865478515625 -190.57086181640625 1.0642893314361572 0 0 0
-133.73123168945312 -190.23492431640625 1.0617811679840088 0 0 0
-132.9149169921875 -189.63922119140625 -2.1390256881713867 0 0 0
-133.27206420898438 -186.62155151367188 0.47804132103919983 0 0 0
-131.6541290283203 -186.6688232421875 -0.8585707545280457 0 0 0
-132.70387268066406 -190.04257202148438 -1.7370820045471191 0 0 0
-132.80081176757812 -186.6839141845703 -0.15481728315353394 0 0 0
-133.40872192382812 -187.9812469482422 -0.7736090421676636 0 0 0
-131.47142028808594 -188.13246154785156 1.0627102851867676 0 0 0
-133.7310028076172 -190.60281372070312 -1.8640841245651245 0 0 0
-131.9146270751953 -188.567138671875 -2.410884380340576 0 0 0
-134.28587341308594 -189.85418701171875 1.897911787033081 0 0 0
-133.71514892578125 -191.32801818847656 -1.4398043155670166 0 0 0
-133.10647583007812 -188.24720764160156 -1.2507890462875366 0 0 0
-134.083251953125 -191.1188507080078 -0.3964376151561737 0 0 0
-132.69981384277344 -188.3623046875 0.9490854144096375 0 0 0
-134.97242736816406 -188.55767822265625 1.0010242462158203 0 0 0
-132.49046325683594 -186.37957763671875 -0.8823535442352295 0 0 0
-134.11141967773438 -188.64366149902344 -0.8946624398231506 0 0 0
-135.04627990722656 -190.3079833984375 -0.7549636960029602 0 0 0
-131.36900329589844 -188.84976196289062 2.009953260421753 0 0 0
-131.91476440429688 -190.15199279785156 -1.991567611694336 0 0 0
-131.8994903564453 -190.4139862060547 0.4056769907474518 0 0 0
-134.30401611328125 -188.40187072753906 -0.4057669937610626 0 0 0
-133.91845703125 -188.66567993164062 -2.863734006881714 0 0 0
-134.39212036132812 -189.79966735839844 -1.5440425872802734 0 0 0
-130.78591918945312 -187.99603271484375 -1.560738444328308 0 0 0
-133.2476348876953 -189.56549072265625 -0.2783795893192291 0 0 0
-132.55186462402344 -191.52476501464844 -1.0806503295898438 0 0 0
-131.1678924560547 -188.73654174804688 -2.4865164756774902 0 0 0
-131.82421875 -188.3875732421875 -1.8746243715286255 0 0 0
-130.49493408203125 -189.69927978515625 -0.4142378568649292 0 0 0
-135.65841674804688 -189.29417419433594 0.5723727941513062 0 0 0
-134.05162048339844 -188.41331481933594 0.427748441696167 0 0 0
-134.30123901367188 -187.82235717773438 -1.5573474168777466 0 0 0
-133.34060668945312 -187.5149383544922 -0.960040807723999 0 0 0
-132.45529174804688 -188.7176513671875 0.6498560905456543 0 0 0
-134.91177368164062 -191.189208984375 -0.8697163462638855 0 0 0
-134.21420288085938 -187.61866760253906 1.1076171398162842 0 0 0
-135.167236328125 -189.2281951904297 2.204159736633301 0 0 0
-132.81166076660156 -189.081787109375 -0.5509152412414551 0 0 0
-133.63145446777344 -187.42343139648438 0.0693795308470726 0 0 0
-131.0746612548828 -189.41290283203125 -0.451709121465683 0 0 0
-134.60968017578125 -186.48617553710938 -0.2457263022661209 0 0 0
-131.69549560546875 -190.8860321044922 1.7339752912521362 0 0 0
-133.04180908203125 -188.72772216796875 -1.3612316846847534 0 0 0
-133.57913208007812 -188.5778045654297 0.694534420967102 0 0 0
-133.4032745361328 -191.10740661621094 1.6334935426712036 0 0 0
-135.05502319335938 -187.9194793701172 1.514746069908142 0 0 0
-133.49429321289062 -187.85850524902344 -1.360333800315857 0 0 0
-132.65211486816406 -190.67306518554688 -1.5366343259811401 0 0 0
-131.77743530273438 -187.37408447265625 0.180198535323143 0 0 0
-134.32276916503906 -188.36651611328125 -1.7079778909683228 0 0 0
-131.92674255371094 -188.13223266601562 -2.784231185913086 0 0 0
-132.15635681152344 -189.13121032714844 -1.1086119413375854 0 0 0
-134.34951782226562 -189.4014892578125 -1.9827276468276978 0 0 0
-131.52171325683594 -189.71719360351562 -1.1549702882766724 0 0 0
-133.75648498535156 -189.39596557617188 0.7442960739135742 0 0 0
-133.07858276367188 -189.79248046875 0.2796814441680908 0 0 0
-133.99412536621094 -186.77110290527344 0.44598767161369324 0 0 0
-131.0438995361328 -190.65509033203125 -0.09117908030748367 0 0 0
-134.23919677734375 -188.89895629882812 -1.3475465774536133 0 0 0
-134.97592163085938 -187.7306365966797 0.5040385127067566 0 0 0
-131.26551818847656 -190.23399353027344 1.6467831134796143 0 0 0
-135.32977294921875 -189.20098876953125 -1.3954131603240967 0 0 0
-130.530517578125 -188.7400665283203 1.4299730062484741 0 0 0
-132.41844177246094 -187.2394256591797 -0.7775794863700867 0 0 0
-132.5141143798828 -189.27906799316406 0.6723215579986572 0 0 0
-132.40501403808594 -186.85214233398438 1.2910454273223877 0 0 0
-133.73785400390625 -187.61175537109375 -0.7262155413627625 0 0 0
-133.94692993164062 -189.40403747558594 -1.1306301355361938 0 0 0
-134.6901092529297 -188.59925842285156 -0.7553010582923889 0 0 0
-134.56747436523438 -188.29994201660156 1.5534073114395142 0 0 0
-133.99143981933594 -187.906005859375 -2.4118430614471436 0 0 0
-135.66793823242188 -191.19227600097656 0.6796005964279175 0 0 0
-135.16082763671875 -190.57594299316406 0.8503615260124207 0 0 0
-132.63914489746094 -191.11195373535156 -1.7867927551269531 0 0 0
-131.5775146484375 -187.059814453125 -0.3229013681411743 0 0 0
-133.3033905029297 -186.80538940429688 -2.126607656478882 0 0 0
-134.90841674804688 -191.54901123046875 0.6455192565917969 0 0 0
-132.5875244140625 -188.5421600341797 -0.35338661074638367 0 0 0
-131.42791748046875 -188.89913940429688 -0.14627203345298767 0 0 0
-134.19403076171875 -187.29067993164062 -0.960821270942688 0 0 0
-131.9015350341797 -187.06951904296875 0.6853649020195007 0 0 0
-133.1784210205078 -188.04847717285156 2.2644755840301514 0 0 0
-130.59542846679688 -190.25648498535156 -1.3422030210494995 0 0 0
-132.94613647460938 -187.56129455566406 1.4763908386230469 0 0 0
-133.62710571289062 -189.25857543945312 2.093780279159546 0 0 0
-133.03567504882812 -189.53614807128906 -0.8908077478408813 0 0 0
-132.85572814941406 -187.72434997558594 -1.454025387763977 0 0 0
-132.4580841064453 -187.69961547851562 1.5167704820632935 0 0 0
-133.8857421875 -190.7444305419922 0.06340275704860687 0 0 0
-134.167236328125 -190.87405395507812 -0.9471142292022705 0 0 0
-133.5276336669922 -189.25057983398438 2.6457433700561523 0 0 0
-132.41970825195312 -189.04222106933594 0.2779964208602905 0 0 0
-130.26339721679688 -190.3318328857422 -0.8857381343841553 0 0 0
-133.8383331298828 -189.23036193847656 -2.5885486602783203 0 0 0
-134.6436767578125 -190.03140258789062 0.43982139229774475 0 0 0
-133.71820068359375 -186.4314422607422 -1.4521822929382324 0 0 0
-134.02090454101562 -188.84213256835938 0.9785996675491333 0 0 0
-136.23751831054688 -190.5505828857422 -0.44882845878601074 0 0 0
-132.25900268554688 -189.56727600097656 -1.2404800653457642 0 0 0
-132.11343383789062 -189.69053649902344 1.8840805292129517 0 0 0
-131.29486083984375 -190.33859252929688 -0.5533527731895447 0 0 0
-134.54151916503906 -187.39877319335938 -0.5679457783699036 0 0 0
-134.2242889404297 -190.32138061523438 1.1010442972183228 0 0 0
-133.26026916503906 -186.99331665039062 -1.5976227521896362 0 0 0
-132.59747314453125 -188.1754608154297 -2.7306337356567383 0 0 0
-130.59268188476562 -188.52980041503906 -0.8883013725280762 0 0 0
-132.03282165527344 -188.9651336669922 -0.019018763676285744 0 0 0
-134.94375610351562 -190.95347595214844 0.509061336517334 0 0 0
-133.07003784179688 -189.1632080078125 0.9608221650123596 0 0 0
-135.42457580566406 -190.51646423339844 -0.28100913763046265 0 0 0
-131.5128173828125 -186.7450714111328 -1.4465947151184082 0 0 0
-132.49366760253906 -189.51065063476562 0.28498783707618713 0 0 0
-132.56724548339844 -186.84361267089844 0.7703748345375061 0 0 0
-131.94818115234375 -188.7633056640625 -1.4416961669921875 0 0 0
-135.3878631591797 -188.89892578125 -0.20247100293636322 0 0 0
-133.51792907714844 -188.61465454101562 1.1750837564468384 0 0 0
-131.8389129638672 -189.33734130859375 -1.5511970520019531 0 0 0
-134.66024780273438 -187.93190002441406 1.1293929815292358 0 0 0
-133.02525329589844 -191.55567932128906 -1.4742472171783447 0 0 0
-133.86866760253906 -188.1293487548828 -0.6528687477111816 0 0 0
-133.3023681640625 -188.80487060546875 -0.8647700548171997 0 0 0
-134.78358459472656 -187.61895751953125 -1.8213645219802856 0 0 0
-133.6773681640625 -190.42050170898438 -0.26608189940452576 0 0 0
-131.64486694335938 -189.5670166015625 0.4989582896232605 0 0 0
-135.01730346679688 -187.2356719970703 -0.10534153878688812 0 0 0
-132.0110321044922 -191.11524963378906 -0.8742558360099792 0 0 0
-134.2413330078125 -189.26931762695312 -0.15804283320903778 0 0 0
-131.801025390625 -190.73052978515625 -1.1928085088729858 0 0 0
-132.76388549804688 -191.03463745117188 -0.5517870783805847 0 0 0
-136.63246154785156 -189.69418334960938 -0.2813640534877777 0 0 0
-133.92108154296875 -189.90603637695312 0.7102780938148499 0 0 0
-133.30751037597656 -189.7259063720703 1.4755973815917969 0 0 0
-134.72067260742188 -186.81881713867188 0.12923823297023773 0 0 0
-131.83810424804688 -188.5095977783203 1.1226847171783447 0 0 0
-130.9985809326172 -188.46536254882812 -1.3182530403137207 0 0 0
-130.10305786132812 -187.80398559570312 -0.9856835603713989 0 0 0
-134.70687866210938 -188.1422576904297 -0.4654766619205475 0 0 0
-132.63485717773438 -189.9123077392578 -2.9320342540740967 0 0 0
-134.87095642089844 -190.7567596435547 -0.4873148202896118 0 0 0
-133.29331970214844 -190.0334930419922 0.9943723082542419 0 0 0
-130.60879516601562 -189.88804626464844 -0.9719420075416565 0 0 0
-133.13604736328125 -188.25247192382812 0.37739136815071106 0 0 0
-134.75167846679688 -188.73056030273438 -1.404616355895996 0 0 0
-135.82762145996094 -190.3430938720703 0.5281572341918945 0 0 0
-132.32577514648438 -186.19273376464844 -0.3206998407840729 0 0 0
-134.7801513671875 -190.17674255371094 -1.6947258710861206 0 0 0
-133.46604919433594 -189.5273895263672 -2.6228561401367188 0 0 0
-133.82513427734375 -188.84988403320312 -1.727523684501648 0 0 0
-134.5172119140625 -190.4775848388672 -0.639744222164154 0 0 0
-134.13113403320312 -187.88316345214844 1.5877137184143066 0 0 0
-132.5447235107422 -188.1918182373047 2.398841142654419 0 0 0
-135.3999481201172 -189.47918701171875 0.09943866729736328 0 0 0
-130.47166442871094 -189.32052612304688 -1.1522501707077026 0 0 0
-134.94378662109375 -189.48724365234375 0.7284963130950928 0 0 0
-131.8436737060547 -190.60443115234375 -0.784896969795227 0 0 0
