783

-2.02872 -0.365222 -1.84025 3.72981 -11.0033 3.13304 
-0.63955 0.210068 -1.5319 -1.92829 -7.14169 1.09568 
-0.411721 -2.02594 -2.31068 2.08777 -10.3839 5.5851 
0.143927 3.13839 -0.0214067 -5.60159 3.49644 -17.4266 
2.79188 0.394193 0.510467 6.94322 7.38191 -2.04653 
1.60127 0.315964 2.75174 -1.99717 11.8143 -2.28738 
0.809067 -0.345774 0.576492 3.72738 1.93049 3.54656 
0.90449 -0.819135 -0.572738 1.07622 -6.86666 2.04525 
-0.217544 0.133996 -1.91357 -4.27498 -12.5094 -1.63602 
0.298463 1.04385 1.29575 -4.87044 9.09074 -6.72298 
-1.26414 0.227312 0.696369 1.03792 2.3342 -0.6017 
-1.09665 0.484275 -1.87227 3.0781 -8.58003 -2.4861 
-0.755064 1.81804 -1.17132 4.06111 -1.88238 -6.07513 
-1.07968 -1.86555 -0.999853 4.65823 -2.4195 12.2659 
-2.44988 -0.735971 -0.625248 1.55383 -3.78964 2.76271 
-0.483832 0.392363 -1.0343 4.56209 -4.10893 1.51474 
-0.677362 0.797154 1.11236 -2.44372 7.41928 -6.17955 
0.382124 -0.778646 -0.706818 0.720462 -2.28241 -1.40659 
1.32667 -2.14952 -0.671941 2.63177 -6.58598 17.6067 
-2.09689 -0.185649 -0.475424 0.357863 -4.12654 -1.10984 
0.41425 2.16925 2.42369 11.0931 7.00852 -8.62179 
-0.230046 0.716012 1.41864 1.65118 3.11602 -7.73286 
-1.02794 -0.867663 -0.132448 3.02049 -7.12093 0.0342145 
0.27956 1.05993 -0.0460106 4.14936 -1.55221 -7.69262 
-0.196733 2.45964 1.07453 -8.01429 7.60165 -8.75405 
0.192749 1.37358 -0.64334 4.26246 -0.541973 -13.0011 
-1.31473 1.10735 -0.528626 7.6276 -0.110514 -9.44201 
-1.13742 2.72686 0.181609 0.694643 5.01314 -3.65853 
-1.02682 -1.27146 0.167813 -2.94656 -4.72074 8.99635 
1.12694 3.05175 -0.534076 0.252439 -0.939012 -14.1736 
0.00317368 1.09421 0.355017 4.92519 -0.688432 -5.42491 
0.249974 1.50677 1.26361 -2.29665 2.17678 -2.83399 
-0.525644 0.877969 0.361171 4.21875 -2.45341 2.95516 
-1.39617 1.64025 -0.348164 -2.83718 -4.17921 -10.1786 
0.180982 -2.75761 2.09579 -3.39787 9.37676 14.2129 
0.96899 -1.12873 2.79928 3.94051 15.3935 -4.67981 
-0.416624 -1.22383 -1.53488 -3.21747 -11.7656 5.27684 
1.08925 2.17339 -0.696677 -3.92827 -9.16833 -10.0662 
-0.171973 0.50765 -1.33554 -3.8635 -4.62757 -6.0554 
-0.855854 -0.367365 -2.82244 3.6855 -10.6428 -1.49307 
0.0815154 0.514494 2.11894 -5.1858 5.17993 1.68499 
1.73987 2.15648 1.01335 6.69095 0.920992 -6.61946 
0.573315 -1.91047 -0.297921 3.86102 -0.676529 10.2568 
-0.0191113 -1.29626 0.316745 -6.50234 4.30426 6.2619 
1.79882 0.223396 0.887547 1.16802 2.66357 -4.94192 
0.101493 1.46596 -1.28803 -2.79645 -7.07846 -8.97638 
-0.485063 1.77207 0.889849 3.88458 7.3555 -6.15538 
-2.18488 -1.78891 0.0149608 -0.21188 0.733313 5.32713 
-1.82973 1.07072 1.46639 -5.13385 5.01373 -12.8114 
0.746709 -0.441925 -0.97398 -2.81098 -3.54874 -1.74201 
-1.05311 -1.96409 -2.27571 3.52078 -12.621 8.16099 
1.64748 2.15207 -0.504665 -9.5074 -2.40743 -6.15087 
1.5354 -1.0504 -0.205928 8.49977 -1.44847 6.41569 
-0.50386 -2.25519 2.36691 -1.43987 3.73088 6.90268 
-0.148185 0.499467 -0.362847 7.17235 -2.67577 -8.52548 
-0.229475 -2.62382 1.55495 2.96482 8.65121 7.26254 
1.05993 0.717256 1.43865 1.7826 2.56301 -4.35219 
1.76855 -0.840606 0.168571 -3.2777 5.2517 -0.579525 
-1.55409 -0.049656 -1.84484 -8.47201 -13.5423 -6.84057 
-2.27938 0.357613 -0.198612 -2.06753 2.01645 -6.87504 
1.14849 -0.336953 -1.28922 -1.21265 -15.5317 5.76455 
0.547077 0.0976217 -0.244218 4.52368 -3.89177 -1.19376 
0.140401 -1.98342 -2.6992 3.45438 -9.57832 6.11264 
0.544076 -0.14793 0.16169 4.81552 2.49402 3.44561 
-1.99633 -1.59363 1.05266 6.53889 6.73787 11.9966 
-0.104783 -2.78004 0.651973 13.1963 6.50478 20.6881 
1.83841 0.670189 0.557163 -2.46293 -0.470781 -3.52245 
-1.81648 1.48249 -0.056171 1.15885 0.869719 -3.25949 
-1.26946 0.263104 1.84586 0.584288 14.488 -4.28864 
0.952456 0.696932 0.981634 -0.406956 7.52218 -5.65659 
-0.131321 -0.461278 -1.46688 -5.17037 -4.48613 -1.51689 
-0.0551667 -0.0835564 -1.03745 -2.2096 -14.2187 -2.11324 
-1.2258 -0.805281 0.376274 1.22343 8.91781 1.44531 
1.99789 -0.394991 -0.251912 1.06152 0.543999 8.36837 
0.860933 0.863569 0.415264 -3.85278 -7.04746 0.950932 
1.11035 0.327992 -0.455571 4.55457 -6.90335 -1.50667 
1.13565 -2.09671 1.86845 1.67106 9.61504 13.2161 
0.37133 -1.58539 1.09668 1.62874 4.6285 0.477652 
-1.11145 -1.05968 0.997898 5.20737 9.11516 3.98125 
1.09723 -0.551845 -0.20954 1.15173 -3.79967 2.43009 
-1.90144 -1.2164 -0.663784 3.31837 -3.8583 7.90202 
-0.00202788 -0.640295 1.026 3.25051 -1.08613 4.94939 
-0.263913 -0.872329 0.209994 -1.28957 -1.4139 3.00557 
1.03139 -0.0936961 2.53577 9.62491 15.8545 -0.0499781 
-1.66609 -0.100289 -0.126175 -2.11834 -3.81555 5.41744 
2.22886 0.821213 0.333731 -7.11399 -1.34503 -5.17381 
0.757897 -0.0714259 -1.6325 1.19514 -2.759 0.21035 
1.10042 -1.40677 -0.184136 1.0016 4.37541 4.63747 
0.0699454 -2.19705 2.22218 1.82205 20.2851 20.6292 
-0.395184 -0.26136 0.368985 2.8753 -1.22759 9.20668 
-2.27971 -1.14251 -1.01794 -0.995357 -6.35716 4.24977 
-0.484739 -0.602418 0.805676 0.763393 7.361 -5.74066 
1.96728 -0.80785 -0.767233 8.74128 -3.6848 10.243 
1.26749 -0.00883826 0.730182 -9.26482 4.04605 2.04864 
-1.84145 1.34345 -0.601678 3.11427 -3.68071 -7.71134 
0.741563 0.829316 -2.09134 0.032484 -7.50543 6.60309 
0.141235 1.01407 1.79851 -0.499073 7.82357 -5.49538 
0.400434 -1.3347 2.02716 1.35158 10.9527 2.00278 
0.75325 -1.40638 -1.04459 1.8234 -2.8818 8.29095 
0.758456 -1.91015 -1.92124 -3.22826 -5.78447 7.75223 
0.895648 1.56077 0.526685 -5.35458 1.84353 -3.69151 
-1.0239 1.37027 0.923704 1.71293 9.45384 -4.70662 
1.34957 0.488641 0.789035 0.798249 -2.10295 -2.55194 
0.16885 3.18702 1.66096 1.52432 5.08761 -11.6424 
-1.43352 0.706386 -1.67211 0.435581 -5.98467 -0.826369 
1.42248 -1.57242 -2.06018 -1.07747 -9.77264 7.11306 
1.92722 0.971208 -1.20454 -2.59733 1.4898 -1.37622 
-0.80766 -2.86595 0.204237 -6.43001 3.20409 5.68951 
-0.284362 0.360785 0.164707 -5.29813 4.5121 -3.54479 
-1.26827 1.9883 1.64079 -5.3154 9.20307 -10.8841 
-0.699194 -1.90655 2.84411 -4.0184 7.56281 6.54249 
1.19947 1.15502 -2.45268 -3.82237 -13.7641 -9.36975 
-0.416901 0.236112 0.963892 3.79809 1.0156 -1.25077 
-0.575585 1.5573 -1.92699 0.168228 -6.07883 -10.7252 
-1.75596 -0.140927 -2.43985 1.03555 -9.43109 5.93971 
-1.6378 -1.10906 1.33467 0.0633095 12.1747 4.41265 
1.46129 -0.900109 -1.60372 -2.77462 -9.48915 4.91195 
0.498723 0.0973761 0.582864 -5.60696 1.71173 2.72395 
0.878569 -1.5985 1.01796 -5.74001 5.40493 7.01544 
0.890721 0.330956 0.256355 4.70092 -2.14351 -0.66621 
1.20947 -1.92935 -0.0266164 0.527126 2.65014 9.82645 
-0.664746 -2.88851 1.05523 -2.65279 4.89564 6.71534 
0.145574 2.77462 1.02491 0.0292153 8.35307 -14.5885 
0.663302 1.21832 2.74836 -6.19643 13.8988 -5.93938 
1.85059 -1.2877 1.35055 1.78209 9.56102 9.42666 
0.493807 -0.147128 1.58313 -3.80703 14.282 0.426831 
-1.05778 -0.0416602 -1.75558 -1.68688 -8.27647 2.66056 
0.6636 -2.06957 1.1349 3.17971 6.07653 5.93299 
2.9724 0.0884648 -0.539354 -0.602684 0.242151 7.01491 
1.78451 -0.897921 0.639953 -4.44838 0.0992921 1.42951 
-1.55137 0.399991 -0.31163 -2.90851 -3.80305 -7.34567 
-2.57198 0.110042 0.934696 3.92817 2.1919 3.83118 
-0.175568 1.33027 -2.22769 -6.64362 -11.2586 -13.0328 
0.279091 0.241098 0.171937 -2.50627 3.09777 1.66245 
0.986262 -0.973026 -7.64332e-05 -4.24787 2.7427 8.07668 
-0.336835 -1.76522 -1.672 -0.873733 -8.66691 3.35538 
1.97639 0.256413 0.170058 4.07206 -1.18614 0.100445 
-2.04633 -0.153329 2.03459 -1.76845 4.45711 -3.36173 
0.468034 -1.27316 -1.7221 2.7615 -10.3097 10.0076 
0.501453 0.631036 0.36554 2.22393 0.949886 -3.20371 
0.888305 -0.520325 -1.85163 -3.3106 -6.93061 -0.768458 
-0.394977 1.83488 -0.0508924 5.02411 1.57816 -1.75472 
-1.66092 -1.94837 -1.64121 10.8804 -9.68096 11.108 
-0.779752 1.02229 -0.305473 -3.63165 1.54678 0.995818 
-0.860964 -0.964044 -2.75718 3.40761 -13.3948 -4.38673 
-0.15282 1.15047 1.11131 -2.06432 6.03931 -3.57366 
-0.33264 -2.59753 -0.0460846 -2.34454 4.93528 12.6206 
-0.186158 1.40237 1.57248 5.249 5.85989 1.69817 
1.91248 -2.88728 0.433666 0.165728 -0.197261 5.03015 
-1.31639 -0.847524 -0.637597 4.65525 -3.35794 1.52096 
-0.56509 -0.917416 -0.604988 2.1635 -2.49804 4.52262 
1.31956 0.217583 1.26108 7.88714 2.25117 4.75572 
0.897912 0.866012 -0.545397 0.906165 1.87927 -0.512494 
0.0197298 -2.06895 1.09971 3.23118 5.82239 6.08412 
-0.370518 -1.36174 -2.58403 1.81016 -11.556 2.92338 
2.30518 -0.569473 1.15133 -11.8177 15.8042 1.62894 
1.1333 0.179623 -1.30995 -1.29146 -13.2477 -0.126979 
1.95616 2.04386 -1.69247 5.34371 -11.2626 -7.44861 
0.741488 -0.577895 1.54144 -0.269138 11.0606 3.0605 
0.408446 -1.03402 -1.2015 1.09321 -8.55521 14.5022 
-0.00714662 3.66734 0.471601 -0.323755 3.4527 -14.0749 
0.638799 2.12887 0.478784 -5.10499 8.38832 -6.66921 
-2.46797 -0.470418 1.5964 -0.153507 2.48569 -1.54578 
-0.177602 0.624568 -2.2269 1.24311 -16.0099 1.21176 
2.12762 0.162093 -1.77668 -6.06846 -8.73979 5.47585 
0.409454 0.913367 -0.835194 -0.919311 0.737168 -7.50924 
-0.645456 -2.00968 -0.0157126 2.14348 -2.81404 3.44607 
2.75543 0.375402 -1.34543 -11.7273 -5.12334 -3.9573 
0.91639 -1.26732 0.463799 0.503549 -7.5758 -1.81006 
0.362864 0.465503 -2.9968 0.408748 -17.684 -8.7183 
-0.907549 -0.669152 -0.772573 10.5353 -1.10396 8.96983 
2.12671 -0.833543 -1.32235 -3.98899 0.27294 1.34756 
1.36505 -0.897672 1.3121 9.48668 7.69499 5.78807 
-0.675446 -0.591549 0.369651 -2.91955 -2.97807 -6.60801 
-0.434503 -0.324242 1.32007 4.54189 -1.75921 -6.50614 
1.22882 -0.314353 3.24323 5.36314 12.8075 2.80735 
-1.27195 2.01076 0.946801 -2.07951 7.48787 -7.57552 
1.39229 -1.93187 1.21907 0.131958 1.15565 12.172 
-1.39602 2.67915 1.01869 8.46656 8.00478 -9.31134 
1.27604 -1.86849 0.610319 1.07695 6.57363 16.7769 
-0.222844 -1.30247 -0.407594 -1.1069 0.823825 -1.44153 
-0.255675 -0.428778 -1.95084 -1.2858 -11.0437 -12.5937 
-0.462995 2.5638 -1.63016 -9.45693 -1.41471 -13.5733 
0.619895 1.73406 -0.395135 2.63885 4.37397 -4.76208 
-2.18567 -2.1728 0.583301 -1.45052 -2.41692 5.17718 
-0.158061 1.98421 -1.92329 2.07375 -11.6144 -6.62283 
0.559527 1.51321 -1.66731 0.756853 -9.45113 -5.52853 
0.25048 -1.86954 1.75074 4.31078 6.88972 7.69769 
-0.232124 1.03987 -0.12094 -6.4126 6.11469 -3.92819 
1.53608 2.67328 -1.10453 8.15095 -12.7317 -8.80236 
1.45261 0.219318 0.35522 -2.21178 2.17644 0.0499714 
0.172664 2.75248 -0.777805 -8.05021 -4.21428 -6.40941 
1.17815 0.655937 -2.68419 5.94369 -9.16032 -4.50057 
0.0396051 2.31675 -1.36493 -4.66508 -13.8945 -8.53012 
-0.0966576 -0.478122 2.10603 1.12259 2.0473 2.85407 
0.492266 -1.32502 0.185872 -1.32248 -3.42303 1.25593 
-0.915173 0.326587 -0.758129 4.25616 -7.8915 -1.69271 
-0.887153 2.44401 -0.888869 3.57962 -2.71505 -2.75447 
0.0730458 -3.35531 1.47158 -1.29248 3.42255 12.1421 
-0.887906 -1.99771 0.819429 -6.12192 8.10608 7.34707 
0.116794 -1.72461 -1.95357 0.141279 -14.2469 3.16173 
-1.54309 0.209358 0.221982 -5.79969 8.11175 -2.73108 
-0.163955 0.558041 -0.796046 -8.84727 -2.01474 -6.45351 
0.318526 -0.126769 3.02662 1.33585 5.111 -0.188599 
-0.421705 -2.35818 0.864723 -2.98108 -0.338488 12.7098 
-0.846834 -0.295182 0.0169787 3.78805 -6.09731 2.48594 
-0.845985 -1.08968 -1.94058 -4.93183 -7.35271 1.49559 
-0.406836 -1.86976 0.579263 -3.03822 -6.21222 8.04757 
0.538888 -0.581004 -1.36617 -5.43655 -13.0053 7.10376 
-0.969774 -0.97495 2.53927 -0.746335 5.73951 1.83322 
1.16423 1.53935 -0.5093 6.43946 -7.06184 -7.46272 
-1.44928 -1.73383 0.0130703 0.45256 -2.5882 -1.02681 
1.06137 -0.849245 0.79655 -1.82915 5.0687 5.34406 
-1.00017 -0.592629 -1.28235 -1.48793 -0.828933 6.37991 
1.64982 0.217942 -0.544489 -0.439998 -4.22309 10.2482 
0.290923 -0.580549 1.41603 1.38402 11.1104 -3.29866 
0.465636 -1.10249 -0.286819 -0.601109 -4.06567 -0.971703 
0.444682 0.923216 2.22916 -7.36489 9.65829 2.76452 
1.29049 0.651467 -1.50113 -0.950876 -6.53694 -8.85739 
-1.58686 -1.18999 0.393144 -1.6368 8.23566 4.49529 
0.0798003 1.85218 -0.421986 5.82434 -3.13653 -10.9958 
-1.75233 2.05257 0.186899 3.62609 -0.795944 -11.4197 
-0.951178 0.746823 1.607 -0.0190097 4.48375 -6.57193 
2.52605 -1.75694 0.309929 -1.90386 0.876112 6.58939 
0.279789 2.82315 -1.8112 0.351734 -9.78281 -13.4096 
-1.4558 0.719889 2.2997 2.66959 7.87498 -2.18378 
-0.583887 -0.906516 -0.0720407 -4.21605 -0.993052 3.41746 
-1.75671 -1.67367 -0.481955 -0.264736 -5.52453 8.03627 
-0.705878 -0.471402 -0.348932 0.436092 -0.332092 -0.563295 
-1.85233 1.58752 1.80316 1.2867 9.24909 -5.61883 
-0.902223 0.462395 0.777297 3.19206 4.98112 2.74513 
-1.72332 0.563275 1.17175 -2.39674 4.40486 2.56114 
1.19087 -0.762369 2.45189 1.28687 6.43738 5.1051 
0.719317 1.12971 1.03641 3.72324 7.61793 2.28053 
-0.752197 -1.29895 -0.279495 -1.63791 10.0095 3.99463 
0.817875 -1.28478 -0.520576 -2.76849 -6.09061 5.45429 
1.65913 -0.283691 0.22784 -4.55872 0.613902 -2.70458 
0.249676 -0.407936 -1.02326 5.88175 -0.275887 4.17957 
-1.16656 0.325248 2.59745 8.28119 16.2636 -3.02626 
-0.452386 0.496975 0.599009 -4.14193 -1.07375 -0.43827 
0.143089 -0.259769 -0.551292 -12.4191 -2.44543 -4.49257 
1.64031 -0.534599 -1.02748 -1.54345 0.722455 0.0366501 
0.873608 -1.1267 1.26283 2.47537 3.77236 5.79494 
1.12084 -0.191797 1.43269 5.23901 -1.40639 10.8802 
-2.05831 0.244839 0.448441 2.44904 -4.06905 2.95197 
0.986732 1.3028 -1.93722 2.2957 -3.36209 -13.1491 
-0.66167 0.272701 -2.72978 0.868279 -5.56341 2.40916 
-1.77532 -0.229979 0.699948 -5.63954 -0.197232 -3.17008 
0.264452 1.04318 -2.13059 6.82977 -5.09083 0.741854 
-0.390562 1.09459 -0.715003 0.581023 -7.51778 -9.78035 
0.938509 -1.08218 -1.51707 -2.46271 -2.0902 2.37677 
-1.75672 0.396777 1.69585 -3.17505 10.8341 -1.32436 
-2.38107 -0.0105328 -0.984907 -5.88033 2.34275 -2.94483 
2.10402 0.236801 1.39581 1.4968 9.85437 4.82738 
-1.45688 -0.0740228 2.32406 3.53814 9.97554 7.4936 
-0.955686 0.8387 -0.644671 6.5722 2.37667 0.0936121 
-0.339357 0.0619757 2.34651 7.03941 9.9252 -1.8698 
1.06212 -0.13223 -0.706527 -1.67479 -2.7827 0.309752 
1.57746 1.66662 0.598927 -2.45155 2.39892 -11.4976 
-0.460546 1.11852 -2.56296 0.338651 -12.7597 2.87014 
-0.451678 1.39888 0.207435 -1.24663 -0.862405 -8.88931 
-0.357385 1.35084 2.11851 -2.02092 14.0226 -8.54191 
1.72539 -1.75846 -0.929073 -4.10969 -6.43642 10.265 
-2.2084 -0.877515 0.395717 -2.94781 -2.61424 -0.32229 
0.0634198 -1.64202 0.660337 -1.93678 7.84776 5.3522 
0.0973894 1.54821 0.103479 -1.43075 -2.07091 1.85372 
-2.39711 1.74112 0.0928706 0.553336 1.21833 -1.01182 
-1.18662 1.25144 1.33658 -6.52685 4.31219 -2.45352 
-1.72227 -0.906254 -2.02728 7.6524 -4.08555 2.52564 
-0.179577 0.0728497 0.585977 -1.46804 10.0022 0.549544 
-1.39185 -1.23745 1.92014 -0.322508 0.0256518 6.46081 
-2.64112 -0.697947 -1.21263 -5.81253 -3.33232 8.61704 
-1.8569 -0.140659 -1.17543 0.801139 -1.26688 6.17175 
-0.928414 -2.264 -0.675793 -0.297388 -6.11333 -0.319372 
1.20502 2.00189 1.57137 -5.46383 6.80303 -9.06451 
0.845264 1.11325 0.00307244 -2.3384 -4.96378 -2.48287 
-0.929722 2.12381 -0.421599 4.97771 -2.66363 -4.90107 
-0.517013 1.30907 -1.15642 -5.13847 -10.2896 -7.85002 
0.668188 -0.428934 -0.526566 0.454062 -2.83502 -0.169139 
-0.626369 0.846833 2.81237 1.9397 9.20499 -3.74406 
1.65305 1.45175 -0.591088 -7.90051 -2.82284 -3.21173 
2.68273 1.19509 1.29971 4.37937 8.65184 -2.31661 
-0.466506 0.0096736 -0.0558923 -3.53937 5.59621 4.25466 
0.553041 1.3277 -1.07091 -5.13236 -4.30943 -5.55788 
-0.79668 -1.63117 -0.63494 -1.10949 2.85892 6.50607 
0.598719 2.67836 -1.39996 3.83948 -6.61691 -14.8917 
1.23188 -2.38583 0.99239 -0.633683 5.02488 10.6136 
-1.14667 0.583662 -0.262894 3.26912 0.690582 0.143493 
0.97598 0.568681 -0.0854467 6.30929 -1.87802 -2.187 
1.47358 -1.03326 2.03532 5.84429 11.201 -2.12476 
2.18462 1.90669 0.0971714 1.41743 -4.42414 -4.53215 
-0.920227 1.37834 -0.789662 7.99572 -0.615001 -7.28167 
-1.68543 -0.627133 1.22395 7.59589 6.73734 9.96346 
0.264351 -0.232448 -2.03771 -4.37925 -15.3679 0.765429 
-1.15008 1.92113 0.0575972 0.0360494 -3.78408 -9.76327 
-2.67507 0.305065 -1.36258 -4.73153 2.16868 -3.07097 
-1.15435 -0.417754 -0.350977 0.9306 -6.80481 0.639145 
-1.56094 1.52068 0.962135 7.51825 1.14015 -2.01333 
-1.42278 -1.21793 -0.161375 5.51268 -2.6031 8.44792 
0.942759 0.313345 0.712689 1.12453 2.49967 0.301715 
0.289024 -0.323243 0.708679 1.82098 -5.07252 -2.62552 
1.0908 1.84521 -1.4476 -3.81247 -5.69938 -6.01462 
-0.637288 -2.34491 0.432355 1.35926 3.23475 10.7165 
-0.898349 1.50237 0.483801 2.36258 -1.51928 -6.9279 
1.21968 2.19474 -0.125019 0.931901 -5.09321 -8.92493 
1.14976 -2.41198 0.211232 -2.43656 2.64135 5.92679 
-0.751789 2.28507 1.28927 -3.03119 7.30633 -13.4809 
0.999534 -2.25762 -1.45389 -4.83642 -4.42441 13.8449 
-0.500968 0.619753 -1.85224 -0.0676145 -8.50575 -6.44895 
0.620458 -0.653815 -0.010518 -3.25633 -7.08834 2.25255 
1.54917 0.253011 -2.15525 -5.05406 -9.84938 -5.79984 
-0.219212 1.53482 -0.869718 7.64759 2.36658 -9.58889 
-0.826467 0.95916 0.779353 -5.00341 1.48794 -3.59104 
-0.184938 1.86898 0.460687 -3.16423 10.8439 -5.48578 
2.06029 1.30588 0.18386 2.51241 -6.32474 -4.34276 
-1.83393 2.04733 -0.520071 9.56952 -6.62718 -9.09299 
1.03268 1.0746 3.22206 -2.72475 14.1037 -2.59795 
1.17752 0.899314 2.43818 -6.95212 6.82785 3.70355 
-1.99392 -0.782406 1.59285 1.95228 14.7414 1.61508 
-0.218605 -0.118419 -2.41929 1.14979 -9.13114 -0.30812 
-1.54703 1.92187 -1.81161 -0.163612 -7.74453 -7.24198 
0.782525 0.276066 3.15098 0.774398 14.0309 2.11228 
-0.245579 0.0280173 -0.631482 -3.87259 -2.74536 -6.00066 
-0.349939 -1.16919 -0.897654 -5.98711 -3.40053 1.11398 
-0.299493 2.13214 -0.924348 0.25487 -1.27946 -16.8113 
0.823423 -0.114824 -2.22995 6.03819 -6.28989 6.10712 
2.4815 0.0753846 -0.714365 -0.875824 0.87886 -0.846118 
-1.8837 -2.20355 -0.160557 -6.51054 -3.55303 10.9856 
1.7418 0.319405 -1.26724 0.443914 -3.65442 -2.16974 
2.2371 -0.0821411 0.55459 -0.980939 5.25447 5.89302 
-0.812372 0.0691668 0.443097 -0.139761 3.26633 -9.87573 
-1.12976 0.931445 -1.22662 2.17007 -5.00335 -0.0070392 
1.65447 -0.166536 -1.39048 -0.788566 -9.20323 7.95767 
0.116319 -0.0448577 1.93226 6.06428 6.56633 9.93721 
-0.816704 0.393331 2.16603 0.166087 10.656 -3.87254 
2.74934 -0.305966 0.508414 3.84063 1.99812 1.15619 
0.254068 -0.516738 -0.270276 -1.20395 -7.07297 0.101231 
-1.52636 -2.63729 -0.252531 -4.24276 -6.60419 12.9826 
-2.23162 1.33211 0.547107 3.05128 -0.668359 -0.835567 
0.74867 0.833186 1.70046 -2.48367 9.62676 1.15302 
-0.751284 2.27222 -1.91551 10.5114 -14.8373 0.40937 
1.30742 0.738588 0.369538 6.33546 -6.17673 -4.81307 
0.161386 2.15386 2.92949 -6.43867 16.2947 -5.1469 
-1.32315 -0.505648 0.0754714 -1.57518 3.77521 2.01854 
1.64258 -1.50316 0.1686 -2.16573 1.98583 3.38832 
-0.982448 -1.8624 0.274862 -1.6601 0.558395 10.7604 
0.139339 2.26921 -0.649718 -0.716435 -7.42072 -9.06564 
1.25321 0.170091 1.75461 4.14148 6.42889 1.58898 
-1.07341 1.65764 -1.66038 -7.05285 -10.257 -2.12663 
-2.48393 0.83287 -0.98906 0.0887629 2.88626 -3.13764 
-1.19346 -1.49916 -1.6488 -0.99507 -2.05976 14.6027 
-0.10535 -0.726708 -0.535924 1.49562 -5.10963 0.681141 
0.745703 0.626017 2.65026 -7.73448 11.5065 -1.35613 
1.03664 -0.207633 0.172289 -1.97664 8.3464 2.03036 
0.151692 1.44458 2.49702 -1.46216 6.22181 -11.0262 
-1.27102 0.271421 -2.74544 5.36545 -15.3859 -4.34224 
0.208308 -0.680434 0.172498 2.79697 0.890509 1.63895 
1.08319 0.529202 -2.09145 1.83727 -9.66574 8.85638 
-1.46717 -0.329436 -0.779909 0.740818 -4.8963 1.99043 
0.456322 2.16641 1.07924 -2.11324 7.83417 -4.74159 
1.42105 0.374172 -0.075013 -2.55647 -6.67527 -5.69421 
-1.68063 -0.66683 -0.339408 -0.718156 -0.0241086 2.97428 
1.72513 1.6704 -0.0965708 -2.85619 -5.75104 -9.77641 
-1.67336 -0.752389 2.17595 3.54748 7.00931 -1.20411 
-0.195782 1.37795 -0.354701 3.57171 -3.91601 -7.71537 
-0.622231 0.635547 -0.0565396 3.51407 2.06074 -1.65771 
-1.04993 2.69451 -0.361804 -3.51367 1.99827 -9.03577 
-0.199507 0.0213399 1.54139 7.84262 6.56935 -3.79638 
0.222115 -1.47509 -0.198639 1.25208 6.54905 14.6404 
0.713045 2.62527 -0.544559 0.757992 -5.38359 -6.97467 
-1.25023 -1.54919 1.29921 -1.89951 11.3568 8.18402 
0.195839 1.01628 0.828136 -3.79231 -1.1018 -4.47217 
-1.54696 -1.45816 0.855073 2.33789 6.16107 4.3797 
-0.763635 -0.963584 1.61157 -1.46901 0.494225 3.29398 
0.534197 2.85063 2.38823 5.8718 2.84109 -9.30631 
0.871019 0.216465 1.23603 2.3203 -0.99918 -1.48066 
1.50265 -0.411974 0.787998 -3.99045 -1.89349 5.17708 
0.936006 2.51447 -1.04933 -1.77969 -12.2433 -3.21325 
1.02085 -0.970619 -1.00612 1.01529 -3.92047 3.4693 
-1.51076 -1.01562 -1.50998 3.72762 -2.21153 0.617666 
-1.28757 -1.53739 -2.52385 1.6613 -12.8147 14.9299 
0.165312 2.02574 0.07875 -1.42006 6.17202 -7.49354 
-2.92445 0.0866878 0.530052 -1.50697 2.13317 -4.67116 
-0.202886 0.919364 2.42468 -4.23516 9.31343 -11.0016 
0.990121 -0.445137 1.0382 2.60578 7.06398 -2.35703 
-1.46953 -2.113 -0.465982 4.91166 -3.68707 10.7143 
0.621267 0.435488 -0.594546 -1.83733 -5.19235 2.33465 
-0.817413 2.02754 0.59288 -1.03961 6.74172 -1.68658 
1.04555 1.65398 2.5635 -4.68851 17.7349 -5.56758 
0.0730524 0.922933 -2.79642 4.09647 -13.0451 -1.54332 
-1.30293 1.43598 1.85413 -0.374119 4.05795 -1.74754 
-2.38911 0.886904 0.617746 4.59942 8.8588 1.03042 
-1.34784 1.27789 0.227271 -1.15494 -4.11224 0.265551 
-0.385982 0.795993 2.00329 -0.995013 7.75394 -2.62897 
2.0596 1.1302 -0.394427 1.31702 1.06529 -4.26715 
2.45249 -0.559654 -0.904224 1.2249 -2.55415 -3.07591 
0.665359 1.8203 1.59354 3.69825 1.56837 -7.93552 
-1.59025 -1.90962 -1.02942 2.16528 0.367302 4.11823 
1.17214 1.26952 1.38455 -0.201811 5.01696 -6.22341 
-1.12557 -1.46872 0.774876 -3.04578 9.09418 5.99764 
-1.23366 0.567795 -0.983261 3.69892 1.7864 -2.29203 
-0.54391 -1.43988 1.43311 1.09036 7.36552 8.34706 
0.0479271 0.555624 -1.7905 -1.83856 1.60261 -0.23754 
-0.386239 1.64047 2.74697 -5.13276 21.724 -7.21514 
1.11261 0.594197 -1.02971 -2.83724 -0.722897 -7.90191 
-0.17561 -2.12559 0.187545 2.73652 -1.83818 2.14689 
1.78415 2.11424 0.276195 0.0839924 -4.69711 -2.50404 
0.18325 0.162982 0.905272 8.46281 0.0193958 -3.55494 
-2.99088 0.0138267 -0.0388088 -8.46348 9.06679 0.0482512 
1.44254 -0.90643 -0.699696 -1.49601 -2.47373 -0.896948 
-1.84621 2.7008 -0.476629 1.44146 -4.27339 -1.95741 
-0.716877 2.06677 1.73433 0.71855 11.0966 -12.7338 
-1.08342 -2.2112 2.17993 1.07053 7.40482 9.72081 
1.55941 -2.25395 0.0589558 5.51971 -0.970956 8.22 
-2.63025 -1.47858 -0.750207 -4.40432 -6.37683 5.70948 
1.55437 -0.493725 1.72196 0.808481 2.40154 0.149903 
-0.618265 -1.97516 1.40789 5.6661 0.628071 4.41177 
-0.838395 0.467195 0.275581 3.09802 3.12923 6.82269 
0.458787 -2.20293 0.071102 1.62859 5.4357 8.39917 
0.418564 -2.86984 0.0931442 1.49378 -3.58918 11.5298 
1.91187 0.60512 2.52377 -6.23396 6.86681 -7.19925 
0.44389 0.244425 -1.9346 0.41482 -5.38926 -1.37915 
-0.754402 -0.995084 0.655949 1.15914 -4.87472 3.8324 
1.81729 -2.23776 0.531787 3.99277 3.85871 10.1793 
1.87781 0.168904 2.21303 4.08838 8.02875 -5.93775 
0.227288 0.462992 1.68787 -0.651238 8.96577 -1.67069 
0.632312 2.29628 -0.176746 -0.635264 -6.97119 -9.47271 
0.440914 -0.785962 2.3712 -8.22772 8.19281 6.93767 
0.197883 -0.268977 2.48831 3.08555 14.9234 4.10407 
-2.22569 1.13181 -0.305559 1.27208 -4.80117 -9.68545 
-0.559837 -0.827384 -1.67971 3.73916 -7.09758 3.56448 
0.537058 -0.705457 0.965484 -1.54821 10.9084 1.96781 
-1.94371 -1.0161 0.832797 -5.36529 2.56077 4.03044 
0.629677 1.21295 -2.7931 -2.04572 -2.23525 -6.57323 
1.14009 -1.59508 -1.4414 -9.4387 -5.22317 8.38315 
1.16002 1.20851 0.850407 0.648888 0.824939 -1.21558 
-1.91529 0.277038 -0.652368 6.19533 -3.09539 1.57828 
-0.149109 0.261319 -2.91536 2.84081 -10.0022 -9.9329 
-1.77175 -0.164166 1.62463 3.95624 12.9106 7.52996 
-1.02192 0.390082 -1.45698 -3.39404 -7.60438 2.35763 
1.8485 2.29335 -1.16886 -3.80346 -9.07945 -11.494 
0.169108 -2.53207 -0.394694 1.27921 -4.43063 5.73506 
-2.38377 0.876502 1.86546 0.0113351 2.33634 -0.932634 
-0.16365 -0.832018 -2.50724 -3.12805 -9.24202 -4.8391 
-2.8142 0.216647 -0.539399 2.67225 -0.112204 -4.42485 
-0.805504 1.14442 -1.96518 -2.71682 -7.2617 -6.42414 
-2.0793 1.27425 -1.10412 -2.04924 -6.03584 -6.06384 
0.616425 1.99996 -0.957634 -1.07587 -1.61719 -8.74026 
1.81839 -0.827951 1.17617 -2.27444 4.28224 7.99987 
0.576998 3.22544 -0.760989 8.87085 -8.62634 -14.3039 
-0.161523 1.23177 2.90624 3.76469 15.839 -0.6552 
-0.97 -1.11367 -1.34126 -1.21514 -1.12271 6.76908 
0.142196 -2.02718 -0.678441 -9.76552 4.59113 4.68555 
-1.27575 1.24645 -1.8928 4.40391 -11.6343 -0.998887 
0.653341 1.6121 2.08057 0.679327 6.29945 -13.4824 
0.584082 1.46591 0.0754315 6.69204 1.61129 -9.70735 
0.544683 -2.65122 -1.28063 -0.960206 1.68283 9.28283 
-0.740213 -0.113926 -0.683 5.17221 -5.21511 2.45581 
0.493068 0.610056 0.838874 -2.28685 4.19388 -3.64378 
-2.17668 -0.164584 0.146052 7.2173 2.31564 -6.5408 
1.09805 2.08754 1.1259 1.79467 10.9074 -10.3543 
-1.16509 -0.347715 -2.03231 2.48546 -6.84104 -1.49771 
-0.236209 0.7154 0.922532 3.31691 6.31867 -9.04991 
1.39616 -2.14292 -1.31912 0.228152 1.5413 6.87825 
0.158155 2.27976 0.606805 3.77864 5.39832 -11.221 
-0.899076 0.838377 -2.7871 -2.51578 -11.737 -4.73266 
1.83784 1.62069 -2.03656 2.36898 -1.95991 -5.59168 
0.293345 0.0805519 -2.40907 -6.92552 -8.504 -4.19099 
-1.56945 -0.563818 -1.38168 -6.25592 -7.23547 -7.76828 
0.568048 0.593058 1.28213 -0.854438 -2.06979 -2.07134 
0.0135598 1.52091 0.73194 -13.5649 0.75419 -4.3811 
-0.590479 -3.24633 -0.410194 -4.6846 -11.1294 17.482 
0.108531 -1.75575 0.197366 0.960089 4.16969 3.41404 
0.644579 -0.472074 2.80851 6.16432 9.5573 6.33078 
-0.779049 -2.68488 -0.499426 -1.2379 -1.75737 12.0527 
-0.250183 3.03936 -0.280005 -4.98558 0.49983 -7.73652 
0.985336 1.20869 -0.837143 -2.54646 -0.170728 -6.84101 
0.0859918 0.539443 0.549262 -4.97196 6.6537 -8.7856 
1.46014 -1.29044 0.861238 -7.34142 3.96509 4.85326 
1.35399 0.599092 2.01114 -1.05014 14.002 7.84227 
-0.638399 -0.236071 3.0317 7.34508 15.3073 -10.1347 
-0.325665 1.43495 -3.07663 -10.8467 -14.2374 -0.149642 
-1.14306 -0.985191 -2.33445 6.55796 -6.53003 -6.89729 
1.05065 1.43149 -1.25255 -1.37848 -1.66238 -7.61916 
-0.0842766 -0.760992 -1.11552 3.66887 -5.39028 4.46237 
-0.611468 1.74972 -0.560988 1.191 -2.7933 -12.683 
-1.07973 -1.89431 -0.272875 9.86171 0.938104 6.02703 
-0.838472 1.57494 -0.151878 3.69037 -2.39044 -7.24272 
-2.44361 -1.32981 0.560647 -3.76308 6.57895 3.63767 
1.55342 1.57498 1.29616 -6.2252 11.2939 -0.64303 
0.322614 1.0115 -1.54224 7.45265 -5.11677 -6.60987 
-0.538105 1.38155 1.22783 -3.94051 4.09948 -7.80352 
-1.98796 0.264479 -2.17199 -2.67963 -6.41031 -6.12859 
-0.575757 -0.733723 -1.10205 2.98808 -7.07061 0.0458377 
2.35727 -0.912694 0.43945 1.72845 6.61388 0.550172 
-0.53493 0.675021 -0.563102 0.00269211 -0.265618 3.37725 
1.02224 -2.79522 -0.77259 -2.62952 -7.26092 17.4468 
0.712437 3.27498 -0.0473256 1.32241 -2.12581 -11.189 
-0.674026 -1.64904 -1.29713 0.171398 -8.62781 -1.72492 
-0.0498346 -2.91174 -1.17436 0.410104 -6.23622 13.4275 
1.54499 -0.480789 -0.482983 -0.162306 7.21775 0.314304 
0.225324 1.60359 1.86058 1.45426 10.7372 -17.5385 
2.29892 -0.0744216 0.065907 1.50582 -3.35075 0.605314 
-1.48365 -0.659778 0.799789 7.54885 8.5834 -4.32122 
0.422591 -0.0556887 -0.850459 7.90673 -4.18446 1.14209 
0.364481 -0.753153 1.86425 -2.65436 2.03492 1.39442 
1.67691 0.893359 -1.8815 -6.798 -11.3943 -3.38882 
-0.258412 1.0687 -1.57226 4.15684 -10.1844 2.31967 
-0.844887 -2.42467 1.19249 2.46555 3.61101 14.969 
-1.23209 -1.34277 -0.548055 -2.02115 -5.47912 4.27158 
1.57428 2.82142 0.198712 5.07282 5.65909 -10.1748 
-1.93367 0.942848 -1.75477 -3.42004 -13.8543 -1.94536 
-0.346742 -1.5983 2.01134 -0.709146 10.7213 1.69084 
0.444322 -2.67226 0.991536 -2.13886 0.385456 15.4423 
-1.03262 -2.43228 0.0525705 3.25534 8.60342 13.6861 
-0.464739 -0.992665 3.00196 -10.5389 14.6621 2.96899 
0.901403 -1.09539 1.93297 -0.417812 13.7178 2.61683 
0.946933 -1.25214 -2.84767 0.702569 -12.1183 13.9095 
0.629838 -1.77453 0.645255 9.35044 -4.35274 4.11376 
1.36144 -0.316086 -2.33535 0.00114853 -13.5352 -3.69867 
2.32846 0.527333 0.843837 -0.349496 5.06833 -4.49422 
0.0818015 -0.203646 0.156629 0.756355 3.7152 0.925125 
-0.162707 -0.259352 0.971106 -4.75904 -0.6514 -7.83711 
1.69269 1.14892 0.567689 -0.568161 -0.609124 1.42901 
1.40746 0.0401713 -0.913164 0.182438 -2.2467 -0.331797 
0.0786387 -2.26638 -1.83068 -3.67241 -11.4162 9.81334 
0.150245 0.272161 -0.536127 -3.72803 -3.93116 2.99463 
1.44097 -1.71082 2.12038 -4.45139 10.4443 10.3523 
0.352151 -3.26812 0.468906 0.810092 -3.02222 8.40961 
-0.881574 0.00337731 1.09589 -5.75447 7.27191 2.8058 
-0.56179 0.983093 1.6666 2.01468 11.3374 -14.7336 
-1.35145 -0.127855 1.00782 1.83662 6.23358 -4.1217 
2.23335 -0.236517 1.67895 -2.85059 6.95101 -4.87425 
2.89747 0.624957 0.107932 4.80609 -3.0004 -4.75668 
-0.725214 2.30744 0.1178 2.35008 2.32644 -12.4904 
2.00175 -1.94792 -0.454696 -4.82179 -6.54618 6.2836 
2.07164 1.64309 -0.879045 1.79113 -8.4903 0.454697 
-1.96699 0.213668 -1.58807 4.6563 5.92284 7.83458 
0.511555 0.598767 -0.172375 -1.59321 -2.61439 -0.845479 
-0.1301 -1.07663 2.04044 3.7399 8.68531 10.7822 
1.46 1.51495 -1.7874 -1.84256 -8.22181 -3.81937 
1.96594 -2.62941 -0.123286 0.829848 -2.92283 15.4021 
-0.166015 -1.14934 -1.98513 2.26033 -6.28576 -6.55612 
-0.603926 3.12405 0.25129 1.19559 -6.20205 -6.7177 
0.450212 -2.46004 1.64707 3.05123 11.0097 12.9863 
1.69335 2.06394 2.00881 0.119138 4.40491 -0.477025 
1.20775 3.33681 0.926894 -8.48278 0.834972 -11.8256 
1.28378 1.01784 -0.165713 -5.84703 -0.258089 -5.49944 
-0.872606 -0.00704736 1.65602 14.034 3.11908 2.59701 
0.842576 -1.70047 0.126734 -2.16369 -7.27171 -1.84188 
0.616433 2.12372 -2.79869 4.33883 -14.3362 -9.11269 
1.01553 2.73436 -0.0719159 2.86707 3.20422 -11.5485 
0.3146 -1.0997 0.606702 1.56316 -0.254802 -2.34671 
-1.76789 -0.746117 -0.922693 -6.22137 0.322654 -1.63959 
-0.953825 -0.560653 1.32666 4.50408 11.0673 1.99962 
0.209546 0.719943 2.86756 5.64261 8.96491 -8.19333 
0.0661185 -1.83648 -1.43312 3.12844 -12.6355 10.5174 
-1.04799 -0.0700184 -1.0616 2.64049 -4.58534 -6.59131 
-0.595132 -0.0603027 -1.08804 -3.16421 -1.69711 -4.79542 
-0.398537 -0.998882 1.27538 5.22068 6.08765 6.58749 
1.06183 -1.38789 2.22312 1.24885 5.63727 2.84072 
-1.27957 -1.4699 2.37173 1.29415 8.7384 8.10062 
1.81744 0.73708 1.16269 2.21296 -0.0918979 -0.966427 
-1.53783 -2.43116 -1.08 4.88489 -12.3687 12.4562 
0.906593 2.5249 0.690669 1.31438 4.1813 -12.8388 
1.75502 -1.7881 -1.54246 0.35488 -14.3761 2.90096 
-1.53629 0.1534 -0.937312 -4.16412 1.50675 1.74097 
-0.35284 -2.36869 -0.624577 -5.88258 -0.971159 13.5933 
-1.15633 -0.713353 -1.77023 0.854763 -2.61706 -2.71951 
-1.31049 -1.79561 1.68337 -0.805942 3.67213 11.5461 
-0.518937 -0.672926 2.26366 4.99005 10.1339 8.46844 
1.62106 1.63796 -1.21572 3.51095 -6.68604 -3.6391 
0.763386 0.453035 -1.68163 7.42462 -9.50428 -1.83658 
0.394199 -1.05359 1.22422 -2.31833 4.07017 3.17369 
1.2495 1.30718 0.266836 6.37041 6.25479 -7.26274 
-0.222344 -0.609989 1.68993 -2.38104 4.97765 0.317991 
-1.07144 -0.461842 0.862601 -0.351311 -2.15668 1.28759 
-0.865156 -0.132255 2.38673 -0.562795 10.6979 3.42755 
0.133421 -1.15868 1.59559 -1.69658 10.1859 5.18017 
-0.50707 0.254396 1.8 -0.211823 5.47156 -0.352634 
0.839747 -2.70849 -0.0880015 -4.20492 -0.61244 13.2064 
-1.69479 -1.80807 0.369474 1.23385 -5.99653 7.73259 
0.278164 -1.14167 -3.02209 -7.7603 -13.9536 -0.476847 
0.277019 0.435484 -0.928138 -5.0184 -5.80797 -3.89982 
0.772831 -2.21114 0.51583 5.26141 -8 6.21565 
0.31438 -1.59259 -0.828958 3.02435 -5.98079 5.48681 
0.837928 0.199841 1.71427 2.39952 8.58859 0.714012 
-1.86013 -1.39312 0.0496685 -2.81526 0.35634 4.1082 
-1.26988 -0.745889 1.60509 1.4765 9.55514 5.81328 
-0.838307 2.51679 0.789116 -0.0841486 1.79302 -8.80647 
-0.863603 2.06491 -2.40319 2.5654 -9.24091 -16.2351 
-0.901191 -1.253 -0.943484 3.69151 -0.755268 1.11318 
0.571013 0.479482 -1.22875 5.24959 -1.15645 -2.07854 
-0.355045 -1.66679 -0.387088 3.67898 -4.00684 0.628853 
2.04036 1.42488 1.65051 2.71398 5.83775 -5.56928 
0.952476 0.0736773 -2.76909 -0.129242 -11.0891 0.47526 
0.0298222 -1.03749 -0.13272 -2.19296 -0.597886 6.67599 
2.06915 -1.11411 -1.75053 -4.93219 -1.96376 11.1116 
0.0589473 -0.456006 -2.97416 0.830391 -9.03724 0.309463 
-1.28901 1.97066 -0.844918 -5.88777 -2.82302 -10.3739 
0.791397 0.478529 2.14946 1.39431 3.69389 -2.51554 
0.45363 2.6949 0.289559 3.5428 3.08376 -13.2339 
-2.55171 -0.820824 1.01287 -1.47586 3.26323 0.49781 
-0.94269 0.153523 -0.104447 1.26978 -0.943536 3.54656 
1.49546 -1.70252 -0.315686 1.27247 2.25861 6.07918 
1.27447 -1.42783 1.37401 4.60204 -1.14829 12.7258 
0.63629 -0.109204 0.976619 0.592853 7.6743 -0.160597 
1.0264 -2.74609 1.39163 3.81979 5.165 13.8985 
0.798348 0.910774 -1.10709 1.04756 0.857885 -3.84143 
0.748019 -2.53875 -2.12577 -3.68122 -6.07787 9.32179 
0.0107066 -1.27357 0.954733 4.15674 -0.587716 16.0626 
-1.49703 1.21988 -1.1576 -1.92289 -3.66692 1.66343 
-0.0128178 -0.737864 2.7757 -0.570114 9.51413 8.49168 
0.852887 1.01515 -1.60337 -1.7693 -10.3656 -1.09255 
2.03085 -1.52496 0.745889 3.15774 3.14881 0.7498 
-2.46084 -0.343396 0.707161 -3.20796 3.22665 0.173859 
0.0662522 0.88572 -0.496261 2.09111 -1.53639 1.9436 
1.34691 -1.17376 0.399736 -0.266259 5.19219 5.22645 
0.0598388 -2.35882 -1.12716 2.78294 -10.9131 11.9574 
-2.77899 -1.23075 0.176445 -6.66874 2.92917 0.0252595 
0.639413 -1.52163 1.51554 -6.15746 6.45151 -0.872859 
-0.623815 -1.39564 0.428827 2.24807 2.81774 5.94433 
-0.578646 -1.62294 0.955889 -10.1877 0.415799 13.1883 
2.04953 0.563362 -0.326769 3.19459 3.31552 -0.580706 
-2.28274 0.425563 1.34386 -10.4847 1.6345 -3.55489 
1.17527 2.049 0.423472 2.59328 -8.23824 0.592425 
0.498977 1.18621 0.505221 -1.59857 -1.15528 -10.3759 
0.0722304 -3.18034 -0.231482 1.68729 -2.90591 6.32788 
0.47564 0.628887 -2.45552 4.51708 -10.8751 -4.0013 
2.22421 -0.387032 -1.76262 -0.472926 -1.4328 7.42672 
-0.622373 3.00427 -0.880336 -3.42128 -2.21181 -13.7227 
-1.3724 0.751882 0.107244 -4.39617 1.94836 -1.95336 
-0.290211 1.73104 -1.39382 2.48227 -4.69131 -8.65169 
0.948531 1.81219 -0.0104437 -7.78728 0.129012 -6.1859 
-0.278508 -1.7077 -0.950603 3.31529 -1.71568 4.66926 
-0.6221 -0.590715 -2.30867 0.145939 -4.42558 -1.4817 
0.409267 1.58618 -2.26941 1.21576 -15.3516 -5.10177 
1.51069 -1.24502 -1.26592 3.61014 -1.05237 5.79426 
0.831897 -1.69711 -0.602469 4.12682 1.39722 19.2672 
-1.01489 -0.46647 2.02802 -2.82309 20.543 1.09619 
-1.86894 0.723007 0.198993 0.16241 0.940899 -4.26825 
0.215619 -2.1415 0.587661 -0.2591 4.5683 11.1232 
-1.31251 0.0532981 -0.544788 -2.25454 -0.721567 0.40154 
0.211828 -0.14142 1.23868 -1.50319 5.58086 -1.62131 
-2.04969 -1.34425 -1.61572 -3.51653 1.97767 -0.240691 
1.14651 1.41487 1.95428 -2.22851 1.79636 -3.73194 
-1.05215 1.10647 2.07644 5.89639 0.0348863 -4.19678 
0.53332 1.18592 -0.449718 -2.42101 -1.37464 -2.23089 
-1.81093 -0.394615 0.294295 3.36508 0.381255 -0.699653 
-1.04181 -2.33326 -1.69434 0.750936 -1.4354 10.913 
-2.57881 0.468274 0.400269 0.245537 5.82342 -0.598468 
0.670479 1.6733 1.00331 5.61283 1.6679 -4.15964 
2.45907 -0.993547 -0.135524 2.0038 -0.609318 4.19826 
-2.16506 0.685598 -0.669719 3.25779 -3.71975 -7.67416 
-1.2458 -0.187789 0.462785 -2.32539 2.20209 -3.25538 
-0.635092 -0.278312 -1.5102 2.54507 -7.57576 7.06192 
-1.50073 -1.31182 -1.04369 -7.93053 -3.36512 11.4594 
-0.0632516 1.47105 -1.82127 4.25789 -7.79522 -4.25181 
0.406839 -0.977598 2.83925 -6.23056 12.001 7.8734 
0.2471 2.09131 -2.39843 1.70842 -14.0914 -14.6815 
1.67213 0.835355 -0.0279481 -8.27308 3.24779 -1.4418 
-0.725213 0.458799 -2.31085 -0.628781 -16.2486 0.115145 
0.102616 -0.874326 -1.60968 -2.91891 1.53471 0.228671 
-0.0752287 3.06003 0.425273 -4.21927 2.78747 -17.1182 
-1.65184 -1.50804 -1.98913 5.18094 -2.92921 5.70116 
0.399411 1.71499 0.550929 -1.22552 1.49558 -3.46538 
-1.1242 2.65196 -1.51368 -1.57037 0.303725 -10.0265 
0.56457 -1.64291 -1.40812 -3.17868 -4.32289 9.46946 
-1.5139 2.34123 0.570133 -7.40351 2.11841 -9.59699 
-0.404251 2.49982 0.499834 2.77708 -0.0333684 -4.36345 
0.956756 -0.0643004 -0.293435 -6.69445 -3.58342 6.66583 
1.87367 1.49779 0.962539 -1.70324 5.95718 -10.028 
1.85747 1.15461 2.2081 -0.742905 4.56458 0.318388 
-1.68509 0.396438 0.732547 5.43694 6.52096 -1.38791 
-0.0278876 -2.09512 -0.257676 -4.84558 3.23884 10.1887 
-1.69034 0.87932 -0.228521 -1.3678 0.724249 -6.20962 
0.488251 -2.12495 -1.12312 -4.93426 -0.279056 12.2065 
1.78136 -0.468161 -2.01656 -3.33083 -10.257 0.183645 
0.0886282 -1.13964 -0.82423 1.25863 -0.46945 0.0329974 
-0.9757 -1.62184 2.06177 1.71567 11.1897 9.58319 
-1.38743 -2.11647 0.542264 4.94346 5.86157 15.9031 
-1.38668 0.115908 -1.39414 -3.9545 -12.0847 -1.37116 
1.28104 -0.662956 0.341488 -1.6079 3.05442 1.47447 
-2.11451 -0.850424 -0.160838 3.31581 0.805681 4.65844 
0.894307 -0.91866 -2.23572 -7.64684 -13.7804 -0.0558398 
0.419175 2.47884 1.86966 -1.77789 4.06481 -1.70475 
-1.9871 -0.277818 1.12245 2.92784 4.00215 -0.657524 
1.45586 -0.148709 -0.293309 -5.61297 1.84497 -6.27052 
-0.607634 0.25907 -0.405781 -1.48188 -0.0235209 -3.64114 
-1.24615 0.846725 0.564554 -4.89086 2.47232 -2.48614 
-0.33071 -2.61014 -1.68794 -2.98346 -2.79205 13.0683 
-1.54822 1.61684 0.46689 -1.49336 7.6325 -10.6346 
0.648573 -0.169058 2.02865 -3.12453 8.89809 -0.474782 
2.17618 0.71534 1.67874 -0.03577 6.26896 -0.107987 
0.725202 -1.81343 2.17784 5.90131 15.3426 8.58791 
1.53581 2.73289 2.2199 -0.798971 12.7426 -6.17179 
0.65809 1.29946 1.5886 7.04823 11.4187 -5.6 
0.915924 -1.44989 -2.07167 6.26954 -11.8784 8.17652 
-0.325426 2.61725 -1.13799 1.09993 -4.60357 -10.3816 
0.133032 0.519582 1.21213 1.71718 6.19127 -4.27353 
-0.352463 -0.408196 -0.772962 -3.0271 -1.2489 4.08797 
2.29907 -1.47045 -0.819515 -2.45607 -6.67584 6.95803 
1.67678 -0.50718 2.43367 4.8212 11.1142 -0.868781 
-0.638773 0.343619 1.35473 -1.98724 8.12597 -1.22219 
-1.28861 0.251308 1.44541 8.24591 4.20912 -0.270912 
0.762853 0.177657 -1.03253 -6.99722 -10.4343 1.85026 
1.46286 1.05222 1.68152 4.20004 9.01719 -3.51558 
-0.322811 -1.43122 2.76585 6.92203 10.0218 1.29911 
-0.391944 1.31491 0.698942 -0.388088 3.25993 -5.40379 
0.671191 3.03804 1.13892 -4.04766 3.52999 -7.66682 
-0.599124 -0.203988 0.743347 3.02078 -3.78011 -2.02098 
-0.924732 1.13459 0.150879 8.32776 3.46964 -4.06041 
0.215822 -1.66604 2.56227 -3.77219 4.41789 9.002 
0.1631 0.288426 -1.35482 -0.514796 -5.84539 1.39534 
-0.609795 0.830675 -1.28631 -6.14504 -9.52757 -1.11041 
-1.31643 -0.476656 -2.62041 -7.98194 -13.5496 8.56537 
-0.739128 1.49836 1.71729 -1.83976 3.97596 -6.28481 
1.42687 1.00611 -1.0612 4.55407 -0.00829471 -11.1068 
0.30012 -1.17318 -2.41425 3.06793 -7.83133 4.49832 
-0.627199 -1.46479 -2.05497 -4.30637 -6.98607 8.26324 
-0.481445 -2.20285 -1.26212 -2.80688 -8.54126 11.3355 
-1.3958 0.717891 -2.4649 -1.29068 -14.5047 -1.54155 
-0.0804715 -1.75897 1.41291 -4.94758 4.62447 1.64617 
2.4361 0.794071 -0.650964 -3.09001 -2.19764 0.359835 
-1.63502 0.708869 -0.710484 9.86933 -4.56744 -5.07308 
-1.80897 2.4805 1.49743 1.70913 11.4225 -19.7059 
-0.169621 2.4413 0.0661986 1.29528 0.906038 -8.17526 
1.88981 -0.179527 -0.829027 3.38931 -6.86376 0.0434944 
1.29282 -1.49825 -0.858794 3.29788 -7.81021 6.71261 
-1.91208 -2.11503 1.0674 -1.74784 2.05247 6.91175 
0.479989 1.98731 -1.65463 1.33446 -2.78386 -12.9674 
2.10799 -0.446289 0.281487 -4.48285 -6.88745 4.73115 
0.761679 -2.34804 -0.697462 -1.84096 -1.99424 17.0058 
0.452085 0.135166 2.46101 -0.92638 5.42971 -0.278576 
2.41301 1.37849 0.866128 -0.76412 -3.21802 -4.39281 
2.20198 2.14946 0.761839 -0.543478 1.42692 -11.5989 
1.54016 -0.205438 1.24538 -1.47214 5.11497 -1.17818 
1.90886 -1.36012 -0.253392 -0.0497471 0.46414 4.2012 
-1.77202 0.979869 0.71709 -8.21668 4.49038 -3.45947 
-1.39324 -2.33662 1.57866 -2.28003 0.520931 9.00268 
0.3577 -0.706352 -2.01492 5.98757 -9.47192 5.959 
-1.32528 -2.5438 0.784943 -6.90922 1.42167 14.801 
-0.22294 1.87312 1.76734 -9.84047 10.821 -7.80344 
0.0257097 0.0666992 -0.183979 -5.62168 -9.76714 1.92622 
-0.325048 0.210327 2.85621 2.02494 4.88337 -1.75866 
-2.59939 -0.501089 -0.0166215 0.965059 -1.21087 2.16219 
0.313629 -0.153371 -1.44026 1.54876 -6.14501 -1.40447 
-0.721248 2.86931 1.46564 -4.40392 5.57799 -10.6895 
2.17229 0.298334 -1.02559 0.383726 -4.31198 -3.01083 
-0.870492 -2.62345 -1.10837 4.01014 -2.14551 11.1609 
0.0747869 0.656503 0.0363052 -2.63079 -3.6388 1.86937 
-0.340692 -1.4485 0.0671886 -4.72954 0.464208 15.2298 
-2.68476 0.216904 -2.20616 0.295869 -7.16072 -0.00288928 
1.48861 0.665117 -0.651856 4.95563 -6.32847 -6.08796 
-0.22894 -1.0227 0.648154 -1.14663 1.08643 2.83657 
-0.640398 -0.159335 -2.12305 -5.23949 -8.5264 1.52758 
2.0049 -1.09906 1.87052 -3.43605 10.6708 5.1253 
1.70777 0.415607 1.60805 1.77329 4.39138 0.641863 
-0.661709 -1.14757 2.11976 6.41798 4.61206 8.19438 
-2.34151 1.71393 1.33694 0.0924484 2.87389 -2.02977 
-0.497082 -0.268823 1.89972 2.78292 13.3919 -5.52785 
0.485878 -0.569845 -2.77215 1.13599 -14.7379 0.562912 
-1.24239 0.757937 1.14828 -4.75975 0.98676 -1.25042 
-0.0771099 1.95598 1.25242 -0.336135 13.049 -3.00954 
0.114344 1.89327 -1.02985 -2.3447 -1.33696 -4.6294 
1.13347 -0.321406 2.018 4.37542 3.97594 0.0126042 
-0.214167 -0.490321 -0.139937 -4.2127 -6.05572 -2.43828 
0.00470867 -0.626757 0.513592 -1.85404 16.3327 5.46157 
0.484688 -2.91627 -0.741927 0.821765 -8.095 12.2258 
-0.403549 2.33072 -0.452617 1.95144 -3.6454 -3.90248 
2.02891 -0.164944 1.04471 -1.90479 0.379205 -6.41061 
-0.00100688 2.1969 2.16151 -8.92904 11.4462 1.99588 
0.651235 -0.796368 0.435964 3.71409 -5.39272 0.692562 
1.50949 -1.01805 -2.09739 -2.82791 -8.9082 4.75594 
-1.71461 1.8527 -1.13533 -2.75615 -5.09066 -2.76361 
-0.00782978 0.970674 -1.14929 -3.17462 -2.11245 -4.07868 
2.51064 0.340643 -0.0745736 1.26078 6.21806 1.64144 
1.22364 -0.101119 -1.77505 1.2951 -3.19102 -2.90131 
-0.423799 -0.530003 -2.77625 -0.849076 -11.1549 -1.05237 
-0.0151704 -1.32063 -1.30601 0.782417 -10.3946 0.301561 
0.907302 2.24312 -1.73765 -6.96985 -4.44437 -14.4215 
-1.83096 0.687728 -1.23276 2.58633 -5.34049 -0.139927 
-0.846908 1.85599 1.20944 6.9299 5.11547 -12.4364 
