463

11.6504 55.8545 -0.200974 -31.9205 7.60827 -0.415812
-39.9094 -33.3558 -12.3284 25.7723 -9.84257 1.28237
-555.248 1683.8 10.4043 -6.07495 13.5655 0.42102
320.681 -739.292 11.8965 3.24271 2.78967 -0.18166
-279.613 220.196 0.42576 -5.14929 -10.2523 0.336114
385.844 -63.2894 31.5456 -3.12979 11.3876 -2.14776
921.727 124.344 -45.1221 4.30871 4.49993 -1.21336
-283.915 515.659 32.1765 -7.04587 -3.60498 0.448117
-592.452 -641.324 -29.0508 3.58055 -3.3657 -0.657818
-997.25 744.528 -14.3628 -3.73065 -2.61221 -0.0169331
-763.062 -171.08 -93.7515 -0.227761 -5.41454 -0.763649
-901.082 -375.295 -146.26 -1.86899 -6.0408 -0.755818
-327.999 -14.9403 6.238 -6.94727 -12.4974 1.04107
-13.4889 17.7654 -0.206268 -34.1445 -22.9174 6.19111
99.1808 161.528 -15.8197 -19.304 2.31337 1.72817
90.345 -58.2154 18.3091 -0.166316 24.1462 -4.38745
-147.279 -44.2158 -38.3298 0.276519 -19.8961 7.13187
-132.155 -10.5667 -14.7308 7.97427 -6.84668 -1.95708
-577.585 376.998 18.5098 -16.8471 0.86022 0.131408
9.95074 56.5895 0.865388 -32.226 6.88107 -0.372347
325.087 -435.374 82.3861 5.56287 5.03341 0.59418
-200.016 -161.521 -23.4272 13.5392 -9.07133 1.15139
-103.754 87.3062 7.4524 -13.6546 -6.16914 -3.37097
19.4554 15.3615 -5.3458 1.17605 46.2398 -7.5502
-235.504 -162.493 -87.4924 3.72026 -15.7015 -4.12893
-48.0216 59.8897 -1.95649 -11.6514 -7.10508 -2.45329
-674.806 -127.881 2.96253 0.20776 -6.61385 -0.630871
-49.2427 137.408 -16.9108 -17.2942 4.9109 0.0768698
-74.6478 -26.7648 -28.3445 -11.1112 -23.0053 -4.85897
-756.329 486.714 36.9066 -2.14359 -4.69386 -0.402288
-245.178 -58.2012 41.9135 -0.151083 -15.0521 3.15861
43.0598 57.7077 11.5602 -21.419 7.37949 -0.621583
-500.561 253.399 -2.31018 -4.01054 -9.20779 0.31896
-76.1052 395.136 -41.9964 -9.21279 -6.8913 1.02704
146.919 -110.075 -0.649945 13.239 12.1048 -0.804208
-251.007 402.508 155.827 -3.82975 -8.03638 1.36132
-279.045 220.72 1.65412 -4.10992 -10.1057 -0.352346
148.007 -110.437 -0.873194 13.4475 12.94 -0.987308
147.039 -110.017 -2.38909 13.1485 13.1558 -0.805418
295.914 -1205.77 33.821 4.67194 -1.9892 0.124034
-1312.25 210.559 -282.346 -3.05374 -3.24786 -0.688446
304.872 -71.5534 79.5947 8.49735 8.92583 3.18098
-491.471 -231.737 9.71191 -12.3124 -18.0501 0.313883
-1838.48 -495.393 287.88 -12.161 -6.19821 2.29002
-397.552 156.546 -69.0413 -1.46576 -7.1287 -0.531874
-480.732 214.413 -118.556 0.427013 -7.36196 1.51761
233.399 208.714 -6.90954 -12.3762 7.26 -1.80555
-151.759 129.011 62.2579 -13.0302 -9.12384 0.69984
-125.798 -167.227 -5.1124 20.8599 -17.5576 -0.595911
-753.489 -380.867 34.8045 -0.0864201 -5.8617 0.322584
-1181.94 90.6052 101.769 0.629976 -4.41369 -0.207595
-446.273 -1377.72 -396.435 -0.34826 -10.4009 -1.81116
148.851 -547.848 17.4245 5.42979 8.46196 0.0630321
-101.052 131.4 6.7878 1.50173 -8.69404 -1.88523
147.02 -109.655 -1.09577 12.888 12.4445 -0.581147
-264.78 -365.368 6.67309 11.8407 -1.90115 -0.232827
13.8237 87.4335 1.22213 -13.3082 10.692 -0.965752
-278.343 218.854 0.14531 -6.41214 -11.3282 0.259199
-5.61538 822.04 11.7245 -5.04051 0.586512 -0.434263
144.513 1438.95 31.8631 -3.07103 7.33983 0.45119
-180.382 -310.016 -1.62425 11.2276 -7.32501 -1.01215
-498.06 251.247 -1.84425 0.118292 -4.28538 -0.0194021
8.31714 49.0962 0.289645 -41.3841 8.00402 -0.331483
1313.92 775.967 44.664 3.95377 6.26924 0.272198
380.075 132.4 -12.8171 -6.8984 6.14304 1.57128
-27.6439 29.2778 -2.31351 -13.3254 -36.7527 -6.22771
147.07 -107.76 -0.0758676 11.7123 12.0474 0.265062
85.4492 561.556 -26.8016 -5.73528 4.60173 -0.243216
-634.872 -151.168 -55.8438 1.0434 -6.43573 -0.535452
-6.66825 819.695 10.9818 -3.05796 -0.583166 0.209216
-56.4446 67.9108 -9.95721 -8.24778 -10.9364 1.52621
-51.8916 -89.8927 -39.2072 25.1479 -7.20162 0.666867
319.014 93.1613 1.82664 -10.3302 11.0426 -0.504464
-297.03 -729.291 -98.315 3.49021 -3.81981 -1.78992
-372.659 26.2638 -5.40252 1.24909 -11.8489 0.323167
9.98285 55.8443 -0.00914599 -31.9538 7.04995 -0.415127
-812.894 -841.087 -17.8236 3.58205 -2.57362 0.261853
439.591 113.32 1.84261 3.25052 11.7233 0.573558
15.1338 6.82433 5.10307 14.9648 63.4453 9.38172
-142.206 36.2898 28.3896 -7.95167 -7.91564 -5.5984
10.8048 57.2418 -0.478797 -32.2217 7.36208 -0.148013
89.9072 -62.4172 -7.27212 -5.29317 18.0377 5.98464
146.776 -109.334 -2.09838 12.7209 12.7832 -0.464248
766.364 465.017 -5.73721 -4.85038 2.46802 -0.00345595
474.542 186.303 13.7071 0.295406 10.0611 -0.184156
-7.39449 819.835 11.9188 -2.98475 -1.06965 0.338265
-59.321 68.4329 -1.11591 -10.9723 -8.04081 -0.295655
-499.858 251.935 -1.58263 -1.2987 -8.12075 -0.113524
-999.122 745.265 -12.8766 -3.66295 -2.05761 -0.206641
-131.2664704814497 -187.944279416187 -1.994331587998249 16.89488591941888 -17.203050972136907 6.493986323713106
-132.20479492920353 -187.7329821468381 -0.7981993669569649 15.90374249476718 -14.421132520565038 -0.01412612247846903
-129.99015852107806 -188.09389541581973 -0.008729095329786246 15.507364099839005 -19.271087941349556 4.793822725890971
-135.58527101201332 -187.5268266301184 -0.7787748712159287 17.03337635719813 6.167739130265641 -6.689460621046333
-134.1250615172356 -188.91146515690437 2.503865267341841 3.3662262171558632 -3.4589500980645678 4.69261079906846
-134.92034896766327 -191.06430145248723 1.417683714983625 1.71221794522204 -2.4406842476016433 -5.098306138627189
-133.1066599238163 -189.6126266385241 0.784944493746711 5.842593889097916 -11.379506591543699 3.1195085592042084
-132.15635153956916 -188.82957983487472 0.978999785542968 14.545902274974171 -14.672211871327683 2.831508099102562
-132.04204102046194 -187.3770004585226 -0.37827532038024625 22.279596171648024 -14.964448139759359 -0.9277713047809406
-134.52034223836836 -189.64611298847166 -0.05736444877134903 6.83627575481254 -0.32152880593294597 -7.243351290720863
-133.1966412725262 -189.74605450814343 -1.3633305547205914 8.16065165750611 -7.987541080795349 0.340045294558293
-132.1653928405813 -187.37404931388954 -1.3174260251638812 17.811318156508783 -11.273540984924253 5.1254977329795945
-133.70826012183142 -187.29361470445141 -1.3230651007470398 13.773936714930441 -4.8198991420049015 4.256004442597586
-130.63432649994115 -189.25031328132388 -0.6704744671007105 4.932584654382527 -20.87411497042479 5.319526668814609
-131.4709855021331 -189.23544408116467 -2.28091114210654 11.503340476119625 -13.75292747443914 2.501892957022798
-132.64007319808286 -188.05401605406635 -0.6861485677622093 11.74083446513858 -12.384270408219777 5.46489445767508
-134.00981468560343 -189.7480609089621 -0.9380990731143048 7.439189344453368 -1.2358226851240683 -4.454332366295991
-132.00982180510084 -188.77057868570535 0.4617658493106903 12.503185527880577 -9.543544114485854 1.2249009493181522
-131.08287381252163 -189.31774511072155 1.7322206487858076 6.19899010638066 -27.787866057579954 4.553691505081435
-132.08402893249345 -189.0504845874999 -2.0812333692943206 13.980221384997922 -10.735091257127213 1.3625037757929277
-136.05270828182068 -190.0681397276928 -0.21838672432866985 6.062204566709561 2.6648763752338187 8.670728222896921
-134.19196549905328 -189.9866208147868 -0.47941255825642676 10.934043874002793 -1.3478695382480996 0.5926926894861653
-131.9156965311594 -189.51701926324014 -0.8649113172599657 15.341246496275442 -12.767368863403028 4.736266228856437
-133.85945981246283 -188.47911477933687 -0.10518700126256589 14.285877574958139 -3.2482804457050705 4.224296071858553
-135.48951139198675 -188.85030216540287 -0.9094295733229817 9.782751475084225 0.26553063691530276 -9.926645765040101
-133.8052344109297 -187.82456848788533 -0.2822283594277864 16.065903461192867 1.8487463226278589 3.969038782440882
-133.3117158245445 -188.27187305712746 -1.6653005474803364 13.194967435551657 -0.5348343105708455 7.171181099405652
-135.063150717841 -188.08695138775198 -1.9039740109484455 7.515689909705997 -4.109851471393499 -0.7491360072645721
-131.72730811596094 -189.9699124445546 -0.7526281436858319 10.14811978102729 -20.255712928260326 -1.4800516961416657
-135.47011786833585 -186.98030595000705 0.18284135090353876 17.855911184547228 2.0873740600337634 0.1806890373362559
-134.02847881252424 -188.85051810426052 -0.3732910857126147 12.260127664373929 -4.685862043508921 4.790184502300278
-134.8819546712316 -189.40411122072072 -0.22574105618802287 10.13235026170801 -6.617623418451489 -2.879114067447044
-133.73530602902594 -189.03662701737454 -0.8270083676767704 9.7075798121663 -12.890764874011207 4.7281601265290245
-133.83105602728108 -188.18537824544939 -1.8797435898442538 19.248831332875504 -3.3737085905519315 -1.8786806206460294
-131.7065674924876 -192.17322341084426 0.8378162654648593 -4.181812528683617 -18.101496787565008 -5.500993586653302
-133.59519022877117 -191.88857279095566 1.1859297917086162 -1.3843920925707867 2.2114373658083455 -0.34865262545547776
-131.04928216377195 -188.3831331110681 -0.20840081752210554 17.972826661057496 -20.44123584821702 0.029167564131238007
-134.64411186299552 -187.2648326783465 0.3729321999814721 23.613634448706726 -6.015477137741172 -1.625733539991329
-132.6540363513781 -187.6923545476207 -0.4210096401119715 17.788143238763567 -7.309316285712336 -2.6739919015378923
-131.02888666927356 -186.92293074313247 -0.8804567015111694 18.91311452967808 -13.030619448948395 6.269518465804632
-134.44049862553243 -190.64384772031454 -0.11282807960671751 5.984302976023507 -9.518996446857635 -6.366665665798355
-135.62552790887253 -188.65869208536867 1.037584869862418 11.123505366120492 -2.6234987070838063 6.051077404793805
-131.3064799347509 -189.63771241899553 0.9497880046160518 4.64778020780568 -18.417677928579305 4.056681473392598
-131.9998746476855 -189.9632216708154 0.22917393617043952 4.718373478140538 -14.094289290569304 -7.321808885043818
-133.954413432332 -189.46507354940942 1.597263875287039 10.024275242841698 -4.0520599281246685 0.29743679241639026
-133.54082816147005 -187.23541641422077 -0.4066312829441498 21.0707326319372 -5.794743782124949 -1.0589814798374586
-134.75800975430954 -189.0612073091783 -1.0114988633449613 6.105514739154469 -0.3607535467410603 1.6700124164159083
-130.96538341612427 -190.25440260516135 -1.7378983408610014 6.813051073900645 -14.07057813978636 -0.3356004718587216
-134.1656779240072 -190.09263439135438 -2.1150032199445965 13.353878837908372 2.964287354505691 -6.54727968835509
-132.23795923755827 -188.3248721755589 0.7205665584187199 14.500035021486893 -10.375334082632172 -1.8585870745663813
-129.92012617899104 -188.1885214545661 -0.6432127882439366 15.78525734869871 -22.361512075453234 6.810105785331722
-134.8434488320304 -187.3595949558027 0.9208635524256463 17.200401140358423 -6.991745896969208 -8.702710805621567
-132.28273993254498 -189.16544026169353 1.6552425320793556 6.2059450832492065 -14.780785415810318 8.662455629121467
-132.11452008960268 -192.26815532380573 0.05073108190938162 3.779082938922845 -14.182156444611405 -2.2742373125075073
-133.13823958159392 -188.535218782004 -0.3775169174104349 14.987267152899037 -2.6214096612055844 7.419542083169245
-131.45940484648756 -191.70095362327652 0.39650629195195425 -1.4839620728033847 -11.497161629138766 0.6975635842600946
-134.48330543596182 -189.81449908143227 0.7655513682415148 9.680469381085494 -4.520905099901235 0.9279794929719313
-132.6964105795213 -189.35537792477507 1.832505686486314 6.640712614140872 -7.244074503979247 -4.58681138273975
-131.63194376593657 -187.71998336134817 -1.6188356979194034 26.657631018779433 -11.565024364658573 -4.806690330486758
-132.6382317998103 -189.05727846808472 -2.3940817497158853 12.235672497821959 -3.1608171968808714 -2.692531368947685
-132.25581802519656 -187.94285086145493 1.0749168506711277 20.45181087297424 -22.37022732048013 2.957358586503881
-133.01158711982103 -188.7282451071566 0.40071294910847155 12.92006776319141 -9.940303034326865 5.319848438045308
-129.9517069201053 -187.65624739582313 0.5056444349570025 14.27132739581332 -19.14285775206168 5.912147707708206
-133.00778207818874 -189.19760349810727 0.4696634410594057 5.184003314848164 -10.863413361738642 4.020459088733309
-131.68848475675568 -191.03219551514474 -1.587340541537106 -3.0208943944457562 -15.988537092010468 4.736320310568948
-130.90442278801785 -190.9753121007949 0.5405880098078082 -8.613754414266412 -22.652862698446263 11.386455054789993
-134.17265658659645 -188.9595800973695 1.512462719832218 12.732632586182714 -7.311173194082949 -2.360726181335701
-133.7532903819903 -188.57520978858471 -2.2386203070302786 10.690151064114872 -6.3679493171857855 0.7891907271021267
-133.79971414395123 -190.72528350326348 -1.3560768927271425 -0.09116666782957417 0.94847915107316 -3.343594174270718
-134.2146119785418 -189.44413300655552 0.658499294800385 6.649087764344561 -1.3413769928919805 -2.5057223631098213
-131.78471929531182 -188.03577576043767 -0.13105451167378468 15.68634828411336 -11.363781323624092 -3.886327958725898
-132.33253994298818 -188.2160077670275 -0.14814752764869143 23.502611327790035 -15.065759733126733 1.5031153342247343
-132.17914230763228 -189.95676653404433 -1.062539320050214 1.576781165681881 -6.5864590533527165 -1.1626865616167983
-132.90988912911877 -188.74463392408106 1.9294293244290315 5.175897114939786 -16.60860983890145 1.0003074954585434
-134.05154325934495 -188.88735878429574 0.5159146376856658 16.31520399353898 -14.532481460217408 -1.8987464781922558
-133.22159098173745 -188.35261838836962 0.8801083854380272 15.595171054033838 -11.104237305336465 6.130749389267687
-132.35467347983572 -191.52066587137153 1.582121688436401 -4.985130804433982 -16.382179189425273 -0.6902695571674612
-132.2318571233279 -190.71974744775878 0.6962842547095305 5.56909916228823 -7.739233367922245 0.3310760938294469
-132.30117553905492 -190.60000164863362 -0.8739454472312296 -0.7211898555346661 -8.105207787732917 2.6784653615915928
-132.6038121944562 -188.9881643231833 1.1020256417682233 11.765280710339164 -13.528513116978997 2.1101703700268932
-131.1680199131011 -189.3514084806083 -1.6268105452094166 8.61022123772179 -17.9784932921972 4.319935166518227
-132.90797712306687 -190.26146062142172 0.08765361241327844 7.775179386716921 -14.10616598165071 3.4741564055729275
-132.24886288945274 -189.70397713225572 -0.11987944910684928 10.00757883775016 -13.24400269931277 -0.8584251501874219
-134.34509355361627 -191.15649333196922 0.9706831346716867 -5.3189325498547735 -0.7458290519343329 5.104258019947079
-132.42368383655545 -189.2490933462353 -1.6811846963790948 10.996863370240838 -16.602155820346894 -0.9850073833936613
-134.27253389204537 -188.63671953188515 1.8455796494701135 15.301328584482214 -6.979757235855661 -6.652069166713756
-132.22213474920846 -187.575809620798 0.6220870200955116 11.991987404767508 -11.102256889907993 1.8381245284844245
-131.90025714778264 -189.41833315173764 1.3290000239820776 3.8396274923217124 -11.554779472655365 -0.12933740104570327
-132.21566123762594 -192.03100984234803 0.5865595604077514 -17.66895219249634 -17.680419571152015 -3.1927237327091196
-132.81211817834077 -189.56886691952255 -0.40322030821096844 5.8486618250894 -17.91589118580218 3.229543295961426
-130.9708748505732 -189.06474153054577 -2.017873559823054 13.467532666020942 -16.641273432209402 0.7408513833136912
-132.72479153896055 -190.1232076121788 -0.3922594054217753 6.571942079261211 -1.1742617145085443 -1.3357289588101016
-132.29959295245405 -188.50013991917615 1.9980333865244302 6.116964469391984 -19.12911885875092 9.552331746601826
-133.56559896748936 -189.51757318719714 1.1422087537862995 7.639852647446922 -10.973100628157834 -9.999992743378227
-133.3587647787735 -188.17286743092868 -2.2367006218511234 16.305101293250214 -4.4009808915889375 3.7812483836286552
-132.7447381804809 -186.75027296486874 0.36225669293761903 13.031557049044098 -19.07781632634685 2.0773692930369347
-134.71235189059453 -190.1187992162982 -0.1918082417075126 6.335828517829244 -1.35042772424449 -2.670333622213324
-132.91321890127557 -191.40153818260242 0.6764582427717756 -0.43599670505403765 -6.077885240766017 -1.5602421624160003
-131.3953181032539 -188.72374677559023 0.9775820755263738 7.921889591779967 -18.06746570560133 2.6293620238686506
-130.5360693001365 -188.20452054235875 1.0976743354833265 11.722857243013953 -19.72787785500661 -1.497459698871518
-134.69941690945126 -188.64553102802154 0.36932652541066185 11.504638960714866 -6.481915938083398 -5.759346558783502
-134.32088812304508 -189.3614673208304 -1.4258698547009971 4.094022391851757 -0.9304854435208743 -0.9467229768239792
-134.03001868673255 -189.31874485205378 1.0925294456052228 12.90793343104786 -8.454406794276585 1.2314097186379995
-136.4718727047602 -188.9570077592819 -0.7356109707800035 11.26119941807619 2.961927925361101 -0.11891019973630265
-132.37844307657667 -187.4905603558773 -1.6967853440928324 15.379953777326552 -11.857365190276482 1.9284485090528385
-130.89417015022528 -187.82554397446125 1.647614596990264 14.919269590652668 -20.765668143792894 1.6083212467625538
-133.56435164854514 -187.27691206562474 1.4861851256394687 10.045574954094011 -8.252558159291315 -2.962191109302833
-130.45598866118118 -190.7315011671578 -0.1237516574199263 5.9111874342941615 -14.113816125612066 -6.975327228071397
-133.25588396330755 -189.07834935862954 -0.4627171025899722 9.181223066476555 -5.325210569689067 -6.3994641096509355
-135.14427862041998 -189.72289841555573 -1.8096481263557878 8.91739723474345 3.2709053973926974 -7.780824048585146
-132.60282373282723 -192.5434075068318 -0.21986243040934372 1.305855181495188 -12.416136438996995 -5.770887012085526
-132.9368694322294 -186.2146033845552 0.7122169688165922 27.096724288786085 -8.79982716723093 -0.30935996664053633
-133.52175661941445 -189.84950710548955 -0.5429297441590198 8.990900005997581 -7.651550559944018 3.336098415503454
-133.15111790686257 -186.73749072888185 -1.096010296707677 20.461846170757383 -3.368275824002396 1.5078176355162314
-131.21430966546242 -187.27783356052007 -1.801055631488113 14.759837100607765 -19.276839222423533 3.5360737903770714
-132.3136243348824 -190.99233725549763 -1.3626333700951863 -2.3846533868701165 -7.769560352159922 -3.0772691074549536
-131.69442079308612 -187.89384690610416 1.5180088619675607 16.149848695505735 -18.972285883352235 -0.1452536929921723
-133.41403264388987 -189.45176570100972 0.3697556432381992 8.46524395261329 -12.138201527877797 -5.8471259835450295
-132.2917583024593 -190.58357367621855 1.1877399152773742 3.253284395391848 -14.109217439794245 -6.859493906515849
-133.5319867172677 -188.99994521827358 0.6808427961755774 11.151936571078759 -9.53563128861308 5.044006248742706
-131.56440515301068 -189.7885741073337 1.573784124142109 2.797445163670245 -16.942984311008786 -0.03823194694220799
-130.89322674549518 -191.45839411155947 0.03616068122072012 3.1594581434184486 -13.640752565069551 -3.7527108535670575
-135.80324640899843 -188.60665896263774 -0.6623325156795588 10.319351861312242 6.855426400879113 -2.4708594097573853
-135.471561943658 -190.76739154643067 0.2766094374098496 2.700934916825963 1.103814555583556 -9.764674724785067
-132.92974775066335 -190.58076249283508 2.050873238564841 -3.0709885701121333 -13.109764004707689 -0.6406741892874115
-133.7075940620157 -190.43566876109838 0.44782583514867835 -1.3197730404385304 -3.876892548606995 -7.438480115304429
-131.79108174276863 -187.72080666303196 -1.1402656162993907 16.021194335450147 -16.283507374543177 0.5449971370002415
-131.90842485184086 -190.94148630412417 1.1055961639407537 1.2926257784451867 -11.544832292697869 1.5526340077543783
-133.38347905548102 -188.1219320553655 2.7381178419461345 6.466747759031341 -15.824319437811894 -0.5524752716171344
-132.88728725033957 -189.7886937894515 1.8718017258038833 10.212302746216276 -11.618191740947438 -4.332129645414955
-132.77550366313696 -188.83255600734117 -1.704716988153341 17.53372916990888 -5.65791653976178 -1.992238160042297
-132.93316945509133 -190.19999128010136 -2.590327492740809 5.4375676441686185 -11.471667737372385 3.2503535847803295
-132.8974404294775 -186.5270096172923 -0.6563261483459679 27.43848133322706 -4.842784102160661 -3.7560873156999706
-133.28155994778746 -189.05932698528756 0.11246584848857448 7.159418488056852 -10.102404198674492 -3.2370461575196554
-132.33113309217157 -189.38713839346542 1.1089622130633516 4.631466731352678 -16.08236985709376 -4.703696217248457
-130.5441144655152 -188.5114655450588 0.007487334179192742 15.824837950112093 -16.95285426723332 1.4449111199964084
-133.66227329901915 -188.80188822336288 1.7464317610215254 10.102761090142703 -9.834087776217181 4.201428869070891
-133.3759645873627 -191.20152173944723 -1.9934118980238982 8.368922363463305 -4.9932812584539725 -2.97526109780611
-131.10661949810233 -188.11504571601014 0.6547018026609918 13.089540028398597 -22.967249933953447 5.508271665209819
-133.75359054364222 -189.00806804704928 0.22881988720098545 10.363626015020085 -6.222009806806231 1.7971672220229278
-131.76456176257497 -187.58149508833515 0.8611042636303693 16.958302270435638 -12.908113385653117 -1.438563893136234
-134.36032150665665 -188.20323389893878 -0.958766992804252 8.504476280593975 -6.766702214372727 4.3627433206212025
-130.11819340866245 -188.81952486904905 -1.2218961454792616 10.248419958859664 -22.43112943675409 13.200042782484815
-133.46810418236166 -188.4274765000462 -1.1225628801086234 9.037618979721634 -10.431140016589202 -3.930403225021038
-130.5600022625872 -187.26539799548965 -0.7282252889501707 22.726811019695795 -11.880536278702317 6.665779530310462
-134.41955886912638 -189.5014798848145 -0.5242330190346861 7.212249532539685 -4.096794248854227 -3.6782754828808715
-130.65925801694806 -190.3168580279242 0.2597934329138918 0.10933766837227132 -18.691138515198972 -3.353897736757433
-134.85392932386276 -189.78537128590668 -0.6135122528017696 3.1401113125797915 -7.67771141143209 3.526150594191278
-131.14377336595842 -190.54216251729244 2.5112734525330382 7.659730200952557 -14.202876928243228 0.2663832305182249
-131.61756646458443 -189.11212111923055 -1.158101443975717 11.087705689990466 -12.01706312001466 5.3586632726936
-131.73849577929616 -189.0637767802837 -0.4141667329424548 9.4085901361869 -14.570548426706807 2.786020162275394
-134.03199318762057 -189.86152918802713 1.1433308969349636 4.065770604062244 -11.66446044801468 7.073014236326395
-133.5817410703499 -188.04876235255017 0.5327936035923061 8.526222600860901 -8.301536295072115 0.3334660737096013
-131.7514584610119 -191.00497750279314 0.4833920376367272 1.4190680030265543 -11.789661308211803 1.6715780887563048
-130.4195598742631 -187.53364677845855 -0.14770928070447065 17.88023594903802 -17.56668910516256 4.781869693503828
-133.53131228195502 -189.998371710166 2.298121678363623 -1.4561339667173954 -5.3632399860509095 -15.544352661167048
-132.67536159173227 -187.68020973801612 0.9248699618887073 21.496616789606712 -16.187498040657292 2.1729988329901206
-134.22642467550995 -186.3373837450818 1.2245721223933022 22.047577519597795 -7.92609198382816 7.919127588705197
-133.37934697844273 -190.56919655966638 0.7986367832181944 -0.7026837067355736 -7.179667321522938 -3.1325319364656394
-131.55427304485485 -188.46035067581204 0.5445482000867284 9.735512681989903 -26.265598910152157 3.5247771643473746
-136.24229622064826 -187.72310585521433 -1.0534752069149371 14.248927761406936 4.016668210514256 -1.5211835115618377
-135.09608499585383 -188.37011005888272 -0.02791552119359353 7.449429434678421 -0.7381773240603682 -7.285128665089665
-132.7995432252126 -191.03530233206243 -2.3257456481708236 8.764102822151004 -7.271907717969112 -0.8672037040860342
-132.30559275735018 -186.86530037924476 -0.47385486996191717 22.59350133659635 -18.29615587770983 5.3661825815134065
-132.6435692761631 -187.138788109226 1.8802067217535192 15.955471534001592 -19.58472641957289 -3.5091858673796636
-133.3705506071673 -187.84665087046454 0.04354361425364804 13.375784173278433 -3.054908204962003 -1.262109193363301
-131.0994275469875 -190.10798195036867 -0.19514117754113403 10.215714306979452 -13.79213523011801 2.828917378954907
-133.17429315460188 -187.3184171617133 2.438497198511275 18.864553413783018 -10.514708136160259 -10.093827894543175
-132.3008792453947 -189.93978939074483 1.127211933822156 17.19089390582627 -11.75597587775806 2.391242596851568
-131.90504603452496 -186.19540386909134 0.07473620716131839 29.13913472460952 -10.61820557849791 4.810642202060344
-131.78856104171118 -188.85010683327147 -0.8127097492469768 4.1988475581135205 -16.530212741651656 10.585152749521304
-132.0353879452698 -188.00830042929584 2.1481085983718504 10.007797445162158 -11.396959958520524 -3.935717425548582
-133.1321134912475 -190.4321223334061 1.479643385592538 -1.362670433411397 -9.722368796098138 7.21358039416024
-132.47465642742782 -189.76829766791153 -0.5873912917799944 16.47581266496915 -5.904088886705277 -2.2045304156156997
-133.22594430589012 -190.4284007028679 -0.40674427692507004 13.78148274510034 -4.317347100719058 4.679648610063761
-134.55635372634632 -191.84577863212226 1.232260347801173 -3.265019601552906 -5.300853627684636 1.841680952802404
-134.81564043001723 -189.11164780664447 -1.832194945098637 7.999869363983399 0.05931328195544339 -4.147173619754684
-132.22428410219106 -190.84188437020026 1.7744364914680455 2.9648983099590094 -19.746616699625335 0.015319748850280292
-135.38510286790844 -188.87259966065403 -2.125239482755501 6.141924012965689 3.3537387497895654 5.862554617061622
-131.94808039698523 -190.30137908372697 1.6341709738737307 -4.084267942606035 -21.006839211074634 -0.401472208603967
-131.5885631144586 -189.36867742943707 0.020481502793709028 10.312827140485549 -8.296109548231211 -1.351027173815401
-131.54319652372516 -187.61929655162672 -0.26871085315245374 25.874710331997388 -4.335959590761767 1.3667024655382205
-134.16790941887947 -186.49700431020827 -1.2447655000583508 20.064722838052944 -0.08139900253160981 -9.053815255683114
-134.32433517416584 -187.80469861583205 0.04048644273233641 8.180501258453571 -3.1749510508308294 1.2733102403418208
-130.92718953583582 -190.93023993820856 -1.6275902908184532 9.798882118909043 -15.627786725243155 -0.7105623344963883
-133.60169656470256 -186.47551528283697 -0.8045658466924462 22.64062322765122 -9.288175234057555 4.870957603680748
-133.4905143209466 -186.81728504915807 0.01587990632612779 20.566016073434884 -9.394740190326448 3.0554421514526977
-132.29403722961882 -191.4397293877682 0.6662831040332522 -0.516619494470552 -12.518935405775101 2.4650582942161714
-133.69402285024836 -188.4987202211151 -0.5951702383495985 8.270981822847574 -4.390316116937879 -7.901052232143861
-134.9566732352471 -186.60724379995068 0.6658031377601213 23.345820985433168 -7.044832298638076 10.98660791639671
-133.60984784438497 -189.0566683638613 1.254146127082232 8.673547227377922 -9.103118695068138 -2.742573501549534
-134.89004268979556 -187.05196938230486 -0.6644993020984147 18.528137288272454 -7.418121099707971 -6.829138426925754
-132.39805882750147 -186.255766989964 0.8176871219948731 18.68158266488837 -9.386668375250052 8.004522455592463
-134.20243686459463 -186.771217663174 -0.690146343818969 26.969764701575002 -9.712722923708359 -1.0726721190530957
-133.56292823506115 -191.1331986087142 -0.025622992166136782 6.65656095564478 -11.105269819510188 0.5620939022231123
-132.02149861021888 -189.7887533901865 0.7277266876251357 12.573593086096142 -12.693798810389763 -0.39823702289662627
-132.62914453287183 -188.38779320489093 -1.0800081106986759 16.581607670625615 -11.459111279479206 6.097476335258356
-134.3455903648699 -187.2583810838207 -1.608780458240684 12.918042006557174 -8.164364131214818 4.071741129027676
-130.8700675450719 -191.93409264516853 0.8780400426527296 1.3883349560088245 -18.845739727501957 -1.9523239963239212
-131.47396768673502 -190.8610604932467 -0.41645355276034574 0.9054294683121942 -13.161265145183172 -7.927674001831897
-130.5360849648598 -188.1817780962946 0.42933069360017395 20.380388613676008 -19.303637523032947 3.879005267456295
-132.88399752996807 -189.38461560686744 -1.6368159935809805 5.865069719455612 -4.382836524822278 -7.808798938143871
-132.9675338282054 -188.13434308325833 -0.4162364201475678 16.878831348444564 -6.44529160511172 -8.173987249839334
-134.4076572480307 -191.70178567902013 0.3006498055757971 5.5609354375576086 -6.974459540753783 -0.09027357565852812
-131.29560585929795 -191.00433142801725 0.12851804053630034 4.6256654090129175 -21.382320954684715 -2.58833288258286
-132.509775036808 -189.34628868552755 -0.8369110274377788 13.091327767753533 -14.289133762266431 5.2558829077495055
-130.8658212182857 -188.0305017084605 -0.665492445313828 16.533577530738732 -15.308081387992802 -2.8500280097325614
-131.56582688801012 -190.5214685500519 0.009830922929646532 11.892740088193133 -20.160299368777267 -1.196689964619342
-131.88025651624832 -188.08210423628012 0.548933160713626 18.582009290322702 -22.94093440803253 -1.7538670561321519
-133.17298794315633 -191.87372123301046 -0.7302079897267943 4.476335286704913 -8.7299554604506 -2.2257238447549876
-134.2223014900936 -187.71919591379304 0.6145288094690404 18.293779467291785 -5.745586095732088 7.878556827287963
-131.1704687394453 -190.1187436365712 -1.0424262747148425 12.628118973131455 -10.057848427300474 1.0534525250558426
-132.84920064685278 -190.00692477103038 1.1641661682610525 3.5203659539375023 -12.249803741434366 -3.0290062356916128
-131.5779546306205 -188.38558010543665 -0.9317344006162536 7.874519531297448 -15.91591107793767 -1.138901758264705
-133.20210770764317 -188.2492285437785 1.4278092492222525 8.560790618052607 -20.735087160930597 0.8325709445556633
-133.2165703525383 -190.52781375631747 0.36213390271549645 2.0729750632166777 -1.406257060282842 -1.6704171438591375
-131.96619852353305 -189.27689710887654 0.6349334390718576 14.068547902041452 -10.96603257547861 0.4237392588249726
-134.91722417931916 -190.49077930172234 0.13292567242159564 2.162991297815724 -8.632439778998915 -9.619529153752937
-133.00970356707367 -187.26608801605272 0.9496468010513 20.156147280191796 -5.368766436959426 0.5828537298454342
-131.7864979656947 -190.2081197418058 -1.310131567250004 1.2467557354757108 -9.972803750585312 -3.6870429316133007
-134.2926192458159 -187.80405676204654 -0.5121158405435386 16.90058814184846 -0.8994867786685194 6.1923110454502455
-134.36672018659112 -188.50385277936806 -2.3210915496729516 15.627192455841682 0.2645590710320693 3.451180296552964
-134.15520046947205 -190.24060634615398 -1.1798408923499422 9.570058394712989 -1.9441144146183804 -1.3546165082209782
-132.16318666848207 -189.80489098881367 2.805679154925856 6.4304070912087266 -15.343261555793166 -1.9819141380632872
-134.45636431524835 -186.10749853432685 -0.5991301555550833 24.869080567613494 -2.7869033952345426 2.6020921543975355
-134.36899310238002 -190.92729642758167 -1.6466936908026426 3.949924170679508 -3.73008015777617 0.43683188633425774
-132.00977918329758 -189.52289689087723 -0.4250754701859755 10.084801637536167 -13.828027517817755 -3.7848569795945988
-130.9068331781753 -189.70626314545277 -1.364200439962222 10.719034517172632 -19.415764283484236 1.2999761050982626
-132.20983975812342 -189.09297107917357 -0.6617489835413203 10.50818643188445 -9.38333721840314 0.4567437958194805
-134.76238383083583 -190.14059673339253 -2.2654980949471955 4.814024578545734 -0.30070066173468746 -1.3218091526375078
-133.51284951843485 -189.6507949615724 -1.0739601399086267 3.801006277547164 -9.305643796693413 1.7905186884007234
-133.61607382418137 -190.06441866702957 -1.8852741358467038 5.590566106851474 -10.239953315755717 -3.4559234095957763
-133.7770982195404 -191.3801073005605 1.2977477544539011 1.8148779674105526 -10.932449934872007 -0.3840379673473737
-134.55424228419037 -189.31884859140635 0.3214442969338671 1.706446617835251 -7.565161051539357 1.60528377206876
-131.5404812508342 -189.55543902005562 -0.4888755286390893 0.009556529185589469 -8.691498410563701 -4.16113655410489
-131.77309869776536 -189.11000460955995 1.0180830746326137 13.027588490745902 -17.81668013411656 -1.0172118056366688
-133.16926945761278 -189.15653735696654 1.5824921308744928 11.869860459414156 -7.807897943900318 -4.6512879141163594
-132.13384403693502 -188.33871309916418 0.23108312923757446 6.908518654546346 -12.666935139682682 5.787174833491429
-134.24963461477572 -191.33145662759773 -1.2587962260767047 -3.8832597608014936 1.8307007160666249 3.64427918652362
-133.55053252470145 -189.41399594819916 -0.6522470476086807 12.06245056007233 -10.516354721407886 -3.765164259762293
-132.47070180900255 -188.6922623400316 0.09842636475958276 17.036572990138247 -8.872423316989067 -11.471395070579002
-132.32768975899936 -188.19200588675858 1.6061558821457722 9.7542882209361 -9.688705434706657 -1.7178774971847748
-132.80865261475645 -190.57086924301083 1.0642893757373548 3.4469066153537007 -12.629725711690787 1.4724319369917929
-133.7312333339171 -190.23492545814284 1.0617812141400735 4.649002928602865 -19.104708921999716 5.589054795548337
-132.91492358173548 -189.63921967444594 -2.139025687370896 11.448589079300554 -13.919331980415013 3.4424258191479273
-133.2720628250638 -186.6215463261698 0.4780413332047725 18.932140143362645 0.34103686248496956 2.805162390005227
-131.6541264748683 -186.66881663932813 -0.8585707800183707 13.316396516727595 -14.394910034537496 2.2971395073680703
-132.70387063539658 -190.04256719112834 -1.7370820608499469 13.017463663377402 -7.950674008559634 -5.491182175300282
-132.80080505172978 -186.68390809975412 -0.154817276571274 12.457591518541147 -11.852212468631148 7.895331997854703
-133.40872699233307 -187.98125176453811 -0.7736090124913627 21.106862044261597 -4.813946082513102 2.3000993806108583
-131.4714253892623 -188.13245602247116 1.0627102951325493 11.143745331601835 -13.194415513027401 -1.8257386458056182
-133.73099894076685 -190.6028062166549 -1.8640840912443757 2.309090709787461 -3.915700710533839 -5.9606692824355445
-131.91462528688137 -188.56713226796444 -2.41088443215389 10.827240506457887 -6.966961457561862 -6.383066745649474
-134.28586862675465 -189.85418318539533 1.897911769786777 -0.9574877531703656 -9.02794607670059 -1.0796477925784584
-133.71515425521446 -191.328023348959 -1.4398043034481223 -2.83454340285037 -10.98034490135697 0.9091410776601
-133.10647488688903 -188.2472109985733 -1.2507890291371506 6.5751493122821545 -7.759201242419698 5.68303705640917
-134.0832453350243 -191.1188532100992 -0.39643760855842597 1.12424360235865 -2.382298734129817 4.124151628516612
-132.69980781454183 -188.36230518418574 0.9490854000016473 12.585818905561798 -11.619844512744045 -0.923470636244709
-134.97242213233957 -188.5576850865191 1.001024215168388 14.307519887536095 0.9693059925815231 -3.2505156415752587
-132.4904640476799 -186.37957037712647 -0.8823535604053667 19.235998395611922 -18.311353308501047 3.6753208525540937
-134.11141629685125 -188.64366647150985 -0.89466243335719 15.477703278972353 -2.6721277714560454 -1.1860833567427103
-135.04627258651323 -190.30797853770528 -0.7549637180097002 2.9898742396402085 4.028313248705311 -5.816612660599548
-131.36900743529927 -188.8497551950537 2.0099532831184397 11.205885983419412 -22.34481368606206 -2.1301984231419353
-131.9147687728442 -190.15198843940445 -1.9915676203598633 13.036893880896164 -11.178297112360022 -2.2079950780539
-131.89949135431783 -190.41398400926286 0.4056769989801773 1.209172462947576 -10.944286559726805 -3.8589667742548333
-134.30402198126615 -188.40186986186868 -0.4057669859700518 11.164615556682865 -12.581106204419473 -0.844764143649761
-133.91846282185702 -188.6656801090343 -2.8637341035159882 9.406584413641266 -8.236646265366224 0.15624078273836225
-134.39212683065438 -189.79967412299402 -1.5440426254719894 9.070727575443545 -6.545785654139701 -7.512376626014959
-130.78592262532044 -187.99603033884037 -1.5607384049359225 10.544747199062702 -12.796188061788694 8.460254273975854
-133.247631004998 -189.56549062246214 -0.2783795755863192 1.6997163162131574 -5.686377887334039 -4.060452943349168
-132.55186377237106 -191.5247638467069 -1.080650372560932 6.8642173536399 -15.406883897425564 -0.2359902078926033
-131.16789822050933 -188.73654457525308 -2.4865164893596248 9.79602425391132 -19.683155350174907 -4.615905132283394
-131.82422608951433 -188.38757969960034 -1.8746243360580739 7.848369232728609 -15.609826289787687 1.18070883653735
-130.49493602738767 -189.69928074127287 -0.41423784808562764 15.393851857980206 -12.46527403522618 1.264297480930418
-135.65842247653075 -189.29417975723786 0.5723727920732836 10.053365461418792 0.5260915497823202 -7.262457031356614
-134.0516154161 -188.41331794466234 0.4277484388887637 15.954084448431018 -10.34085365190534 -1.0467404378791594
-134.3012402227511 -187.82235725351399 -1.5573474185371543 13.643435061415044 -6.07596096267874 5.366950898181864
-133.34060845725153 -187.51494334254193 -0.9600408081802024 23.70983080348161 -8.647997580160421 -2.45872011063505
-132.45529154186755 -188.71765748604693 0.649856090407092 12.40633662409262 -10.918419305348294 1.1356246989094092
-134.91177434875303 -191.18920450347335 -0.8697163615545613 3.772597568070462 -1.8498893763145343 -0.6446382204712056
-134.21420062378797 -187.61866605229076 1.107617191258179 15.731389037640717 -9.500594509598121 -6.9878093621622375
-135.16723122220696 -189.22818759554696 2.204159673369736 2.9932835589457483 -2.9933989309066513 1.8813534081052843
-132.8116666518759 -189.08178092139687 -0.5509152188275006 3.993809621428838 -11.304535487424134 -4.837937033199577
-133.63146075270785 -187.42343757266292 0.06937953173087687 17.548534442156836 -7.7739139924995015 -3.9722528556749186
-131.07465834078678 -189.41289888856664 -0.4517091311263076 4.636639639876065 -14.207065368570447 -1.7350335214809296
-134.6096742834348 -186.48618124754555 -0.24572630305202814 22.196669351364804 0.5205668738242952 5.112624785349798
-131.69550323221097 -190.88602676695666 1.7339752451738508 0.665015977296429 -16.659601488474628 -1.7641846304114515
-133.04181318409914 -188.72772554142722 -1.3612317098688755 8.681913690472204 -9.09189610797381 2.9369149570763646
-133.57912577289343 -188.57780646947998 0.6945344370768178 11.339503346138201 -7.856127106469547 6.498043947069741
-133.40326776381934 -191.10741154153416 1.6334935753742088 0.44141180612474074 -1.726649663839746 2.632559495700226
-135.05502945776055 -187.9194833413669 1.5147460415519696 15.709125023616012 -7.758198094452532 2.3980968570670678
-133.49429246417014 -187.85850993140357 -1.3603338487085352 12.458869213088146 -2.5931127269317242 7.6991373009962905
-132.65210900483962 -190.67306780950517 -1.5366342829911566 -2.2344976854181198 -14.073167788212832 5.718078013161731
-131.7774409607865 -187.37408477630058 0.1801985312707713 23.499772131939032 -18.42586959248018 -0.2359736934284496
-134.3227676488033 -188.36651977316706 -1.7079779293601671 18.08567452698373 -3.1239053027119112 0.7987693738667188
-131.92673946268116 -188.13222954309478 -2.7842310980550087 10.786602306639677 -6.772725919747913 -5.231296717794234
-132.15635810513498 -189.13121551251766 -1.1086119388473177 15.228079044782737 -13.446160780878571 2.6482174657709647
-134.34952508852098 -189.40148420944845 -1.9827276860140364 8.459020266005568 -6.386930316577237 6.879323001096778
-131.52171775806116 -189.71719140568965 -1.1549702904933277 6.808110286887328 -17.530078271991243 6.119893587325833
-133.7564814940163 -189.39596869642543 0.744296088336871 7.55177961520401 -8.678205233530413 0.3974747247716214
-133.078585742055 -189.79247896195355 0.27968144062046396 15.212734188262196 -9.660332219501404 2.9930498742888525
-133.99412341725974 -186.77110422612964 0.4459876769186817 18.655501509491643 -7.84946395824368 -2.3438800001187237
-131.04390568366603 -190.65508308193478 -0.09117907951426059 1.681763324505507 -17.312586661544223 0.6288909688631672
-134.23920010186757 -188.89895175927526 -1.3475465789431016 14.264508614025385 -4.156445382167916 2.5057956652865627
-134.9759218366404 -187.73063731200904 0.504038496597134 18.57006517677715 -4.344556522392104 2.0212920525964546
-131.2655122580027 -190.23399866854544 1.6467831649963398 5.396826647518413 -14.003640675484835 -2.9698415696628317
-135.32977897245783 -189.2009881000487 -1.3954131584665677 11.308858798006202 4.947777681124647 -5.129858351487482
-130.53052466830997 -188.7400733852084 1.4299730490793676 7.888236634291944 -24.590017482699597 -3.2896239062146932
-132.41844687228442 -187.23943158784036 -0.7775795105135318 20.412156335787145 -8.266413583772422 1.995315164045297
-132.5141207231113 -189.2790749656402 0.6723215395754535 15.569675405985684 -15.59201141379421 -1.2878319199778316
-132.40501071829698 -186.85214469238895 1.2910453718867654 22.298179961159995 -10.200856758308689 -2.453523851079409
-133.73785000941584 -187.61174952270102 -0.7262155579994314 11.186709582524713 0.7792949943978922 6.5403621198925075
-133.9469238819418 -189.40404280783227 -1.1306301096248563 11.676341225813864 -6.687482486139107 -5.325619035584507
-134.69011046599212 -188.5992560450728 -0.7553010838730668 4.3773063356716575 -0.30528561616239536 -6.031496536958667
-134.56747968269457 -188.29993839208672 1.5534072570638597 16.97042714548423 -8.670358340756245 3.9550845817887135
-133.9914369712953 -187.90600724287765 -2.411842975643733 18.06351947462553 -3.6676222629067814 10.754844684465564
-135.6679322463549 -191.1922727615961 0.6796006190779986 0.10556989540508965 -1.1839457806820644 -6.40462509320299
-135.16083287598 -190.57594281039084 0.8503615092394032 3.97782074043005 -10.738172197153176 -8.463747130725077
-132.63914442595464 -191.11194780436796 -1.786792761625377 -3.5500496367921333 -3.843250477603897 -1.9779517308972001
-131.57750968145598 -187.05980723957785 -0.3229013799136392 17.604501051225203 -13.705588131748119 3.4497674655475046
-133.30339537250603 -186.8053872525371 -2.1266076248905796 20.1908063199051 -7.229790904667356 1.6887444855055826
-134.9084194697376 -191.54901530393937 0.6455192426601064 -2.9466518193997224 -4.785916954097733 -2.9196072326518356
-132.5875266396136 -188.54215842117839 -0.35338662452835834 16.184356067390453 -6.4584050290141075 -3.173602071533727
-131.427911481857 -188.89914594758946 -0.1462720324655029 13.639218983650018 -13.243023454883536 -4.908472363291093
-134.1940272912816 -187.29068395463602 -0.9608212842161536 19.45851181948713 4.2094784800019305 0.22211458629801512
-131.90153080954673 -187.06951664784486 0.6853649283357683 10.954973523852175 -17.188005801615937 7.54623072248034
-133.17841702556888 -188.04847920604513 2.264475577607252 9.919033446543093 -8.751651589473626 -1.131144491421247
-130.59543329507906 -190.25648326009843 -1.3422030048630755 8.949598623484615 -21.942217082049936 -5.1870540459079795
-132.94613970207334 -187.56130102356428 1.4763908900605631 14.095064006934999 -9.578866569990344 1.3021239443682748
-133.6271007033584 -189.25857778175182 2.093780256806101 2.9060443880841405 -12.512275177851615 -2.2485914525067074
-133.0356675746678 -189.53614827102868 -0.8908077761065205 12.2675944094428 0.3176836448463849 -1.2154915273989702
-132.85572054502737 -187.72434843138853 -1.4540254111568756 13.770844901908951 -11.84399155091135 3.3613937723170966
-132.45809144895952 -187.69961829788986 1.516770541331014 13.957072749989969 -21.18271177999121 1.754304693568044
-133.88573625558337 -190.74442824425995 0.06340275866290644 -1.7451701512504432 -14.356405413904943 4.284168083494711
-134.16723923405115 -190.87404754998042 -0.9471142263180474 3.0053551941153476 -1.304730255194201 -2.7379085987396294
-133.52764039490975 -189.25057445082436 2.6457433173213603 6.955350471965199 -9.260335266927472 3.16591761553848
-132.41970091406807 -189.04222362331382 0.2779964251185717 16.185485503035387 -13.420961625651243 0.6481417582618848
-130.26340230212122 -190.3318273182709 -0.885738140399741 10.017949703531176 -24.7981605353326 -2.163376577093676
-133.8383354918341 -189.23035648245562 -2.588548654103925 10.357930897703204 -8.925380224040206 3.063296016355064
-134.64367381020213 -190.0314069024419 0.4398214028892664 1.9337886257436256 -6.537183466069804 -4.931075016455046
-133.71820520822672 -186.43144165826826 -1.4521822978659322 19.99706329773531 -15.683828637237522 13.98907512956489
-134.02091047053403 -188.84212665427023 0.9785996766365932 16.25052695075266 -7.63257485871404 7.597001510100756
-136.2375230524639 -190.55058226141256 -0.4488284670883881 0.34850111301896725 1.5271771948440662 -10.609577590435626
-132.25899847117884 -189.56728064139313 -1.240480023446202 6.2111202774614425 -9.950693291407482 -2.508782514188638
-132.11343633451358 -189.69053059070217 1.884080533423631 7.155756102167974 -12.078780213627482 -2.585179801164199
-131.2948636165996 -190.33858509417874 -0.5533527594150982 4.560301402488603 -19.07188791130876 -1.584752126083109
-134.54151640563396 -187.39877418986887 -0.5679457791539085 20.95037008408943 -5.576506807166908 1.0361216525313892
-134.2242858885144 -190.32138246545608 1.1010443283251878 2.958148317740302 -7.473320276077093 2.3065614261525726
-133.26027130532572 -186.9933212532281 -1.5976227135612444 21.239423805816056 -13.869635139869057 -4.206489288022366
-132.59747605248066 -188.1754680426027 -2.7306338286335397 9.1707360002378 -5.666288162884608 -0.7681855655694897
-130.59268370050995 -188.52980161981998 -0.8883013529559916 4.692003083349843 -23.553702271000752 -0.18608686682985165
-132.03282084228726 -188.96513051797496 -0.01901876421705985 13.662751682267086 -12.589556078491633 2.75129573129952
-134.94375821742176 -190.95347144487525 0.5090613175398485 2.751813610525514 -4.234312260661086 -10.537132560020932
-133.07003988508703 -189.16320646835266 0.9608221638062147 2.459058526031199 -7.834785652846895 -4.090571165884929
-135.4245808429439 -190.5164643353308 -0.28100914747171646 10.651183615508222 2.5331341668290612 -3.285800078412435
-131.51282366363336 -186.7450767571273 -1.4465947646230506 23.9488969892397 -12.584131474389014 9.07639267209629
-132.49366467832868 -189.510646140619 0.2849878448524202 7.86981281189003 -10.360654452379249 2.4572979294536674
-132.5672408949647 -186.8436095255505 0.770374852665252 13.325421311564575 -21.797707929146895 4.42627139619643
-131.94818066260746 -188.76330775388706 -1.4416961860132627 12.993826866416882 -13.732051996626161 1.991877466171065
-135.38786548114882 -188.89892859992287 -0.2024709969546072 6.301138037003708 -2.2345283363833017 -4.216622568738155
-133.51793290647876 -188.6146536434404 1.1750837445862308 19.040905920771237 -8.409535430517705 -0.870671513206217
-131.8389063656888 -189.33733710301107 -1.5511970910972295 8.733569502175458 -12.468958411469997 -0.6707559631567549
-134.66025231490792 -187.93189809377694 1.1293930272072588 20.370186699468007 -4.4761201320228805 -1.4786572961437634
-133.0252518922333 -191.55568379995742 -1.474247189602521 3.9957334027224842 -4.863801603129274 1.5288052873409401
-133.8686605327724 -188.12934832665732 -0.6528687297709412 16.405038675478544 -4.442987371630825 4.284121786949849
-133.30236178908254 -188.80486645345175 -0.8647700693783124 8.379444540040872 -6.841135173515024 2.7811801709026764
-134.7835777899061 -187.61896274996118 -1.8213645439750372 13.644517791828587 -1.509849724368392 -4.124266989500981
-133.67736890270623 -190.4204985590648 -0.2660819097605569 4.72632092315366 -2.2001385219562746 5.7398380631675785
-131.64487101851904 -189.56701491507835 0.4989582836679842 -3.0344478003314546 -19.142555806225506 -0.26644629042996715
-135.01729999668785 -187.23566990646208 -0.10534154167307512 17.87713841755368 -6.19790473335078 1.9662296555424814
-132.01103428335819 -191.11525576580013 -0.8742558174337478 -3.1562002066352672 -11.714191576401166 -4.686446688125142
-134.24133206619018 -189.26932149286486 -0.15804282744086903 14.025087710479447 -6.984872651029902 -3.496724398078756
-131.8010318746256 -190.73052726221076 -1.1928084746528977 2.1805775993828913 -10.282387471367981 0.688751848608377
-132.76389086818568 -191.0346411915949 -0.5517870531036482 8.302348117815384 -12.608022864916567 -1.5247868382796324
