479

1.0591896826063618 -0.37471692718302935 -0.667822599888264 0.0 -2.1275897355390865 1.209789230801183
-0.18336169582126347 -0.37093026403290275 -1.554370416213382 0.0 -4.850255202633152 1.198160058855215
0.26061781981034743 1.5005654170928566 -0.2170470570141508 0.0 -0.7432188292056553 -4.549365984283971
-0.5051950255519414 0.41365439010069477 1.4364588506612934 0.0 4.334841656155679 -1.2113676671011995
-0.6548883076614853 0.6252144615673181 0.4531160204285989 0.0 1.314910280894961 -1.8610870507502053
-0.9052865361526398 0.34896801361773666 -0.9997912137928826 0.0 -3.1470942276755025 -1.012710177681578
0.3340095226845534 -1.5396004027610715 0.08856946852675873 0.0 0.1953561071273422 4.7872477206225055
-0.8332516503427375 1.0629577434657587 1.4270689109724715 0.0 4.3023263577462645 -3.20269519483446
-0.5037760321056798 -0.8872795891176067 1.6492839394866217 0.0 4.984195327833985 2.7816269740442396
0.6935480831273395 -1.2782048647668691 -1.2496262419645374 0.0 -3.9111386782412905 3.981184973656523
0.9461749049141753 1.5016867051653255 0.6339292967183785 0.0 1.8685697593586277 -4.548939268703159
-0.250472760468349 0.8689206878021192 -1.7919765344985408 0.0 -5.575345810718767 -2.607290607714943
1.246815607714414 -0.76978333191401 -0.9224724137647354 0.0 -2.9072639835977245 2.4210885693094912
1.1307762628661988 0.7046784875369593 -1.1679263432557627 0.0 -3.6604417467091563 -2.1033118233429655
0.8040396178287877 0.6088548568727079 -1.6595796332410735 0.0 -5.169084635194871 -1.8092760833302761
-0.9354797062379859 -0.41018039237845805 -1.6343662944039443 0.0 -5.0917172604484255 1.3176434618332902
-0.991681235475229 -1.266870097787666 0.9154949459006486 0.0 2.7325566845623355 3.946404131253682
-0.10265993393667444 -1.9317857050476688 0.08262823816219225 0.0 0.17689711453551227 5.9867041206342755
0.06460930220990098 0.1219476090205463 2.0443779328727234 0.0 6.196545078250935 -0.3151964711583293
-0.8818859810498355 -1.5342470661166225 0.4082531902816416 0.0 1.176080438099127 4.766852951653932
-0.9783092367879095 -0.08132408612890357 1.6290159011894136 0.0 4.922002655754942 0.30854469678303825
-0.2622109390837093 1.1698382139126458 1.2903199861333305 0.0 3.8827109556550847 -3.5306589549519227
-1.146112823059109 -1.2340699256964884 -0.3929015446680541 0.0 -1.2822706358754359 3.8457564850883506
1.3794986663432411 0.6812715981741911 -0.24150217096835613 0.0 -0.8177001893722411 -2.031487556327958
0.42383341252891754 -1.6646534742137802 -1.081032133229158 0.0 -3.3938060205226432 5.167006279611161
0.009785028070210982 -1.542854490693563 -1.34783689777208 0.0 -4.212499028056084 4.7932649174450415
0.8849896332723025 0.15221299629372187 1.6631234273115145 0.0 5.026661930443179 -0.4080661055267001
1.128473015522002 -1.2541361934343547 0.08327707853844259 0.0 0.1788880875226384 3.907330022249236
-0.45306727346929904 -0.015284851265415176 -1.865993114987337 0.0 -5.802466405778325 0.10590266414085604
0.5809009980586687 0.8134733081626079 1.52770337354812 0.0 4.611124182135622 -2.4371497855497632
1.0283838104553809 -0.6844858465266731 1.231126210529463 0.0 3.7010742811398747 2.1593524081639717
0.6373644269465559 -0.6649793146494448 1.6490267165172265 0.0 4.9834060366577875 2.0994964259198996
-1.3190532318442574 0.8874061392866543 0.3949926856800397 0.0 1.1353904511257122 -2.664013394871365
-0.6863722142064697 1.5075290451435341 -0.6853445357676836 0.0 -2.1796347902435045 -4.566866545586637
0.7387944061868814 -1.794572267668015 -0.1724389290904613 0.0 -0.6057789618788426 5.565663357307584
0.09664310368041702 -0.5741073641117949 1.8334814942538378 0.0 5.549407311027102 1.8206549643982097
1.327089168470984 -0.8371817564348114 0.7516750627624299 0.0 2.2298737843901053 2.62790128859687
-0.9400466407424964 -1.3015448974704587 -0.8805626933863482 0.0 -2.7786636001666127 4.05280409036445
-1.2707399570543128 1.13334104457684 -0.38788158840521314 0.0 -1.266866851398227 -3.418667036887127
-0.8484415324522846 1.7339116690618601 -0.018387549659815167 0.0 -0.13307081007047689 -5.261523822590363
0.5069053122406644 -1.7019227234115157 0.94879501165244 0.0 2.834738259273342 5.2813673322200945
0.20883870046386965 -1.100307355838304 -1.7688901734090097 0.0 -5.5045050878187425 3.435304742218588
0.07496446794468953 1.3064868276991517 -1.534811791100375 0.0 -4.786233301559134 -3.9499665516052525
1.158312420463662 0.9520446454724555 0.8959796678899126 0.0 2.672673864722772 -2.8623572779814777
-1.2193197838909393 0.23384534795100273 1.1958976403222983 0.0 3.5929750718044775 -0.6585557682762391
0.10962413173217522 1.716262453391661 -0.988155301239386 0.0 -3.10881256082132 -5.207367033140236
0.24702324046425722 0.5442766491229877 -1.976894043560143 0.0 -6.142766980646489 -1.611117226556066
0.28931709952939405 -0.42741268438875757 -1.8688762329070956 0.0 -5.811313281076239 1.3705209169895944
0.12975887494889696 1.4675081474267735 1.4123820548478936 0.0 4.257259597291516 -4.44406203281096
-1.4050614860612078 -0.5587881432565867 0.17766574163997645 0.0 0.46852061565248676 1.7736477866347045
-1.2019872838207286 0.7534808854977229 -0.9910571511743931 0.0 -3.1177169154896918 -2.2530624547823597
-0.7582491092660071 0.6452771759425775 -1.68316538671028 0.0 -5.24145774845515 -1.9210383226281322
-0.44809610245581405 1.6599602651397398 1.1016612957363119 0.0 3.3038099345168073 -5.034603222457748
-1.313724743059308 -0.6834358758626033 0.7090581891533065 0.0 2.0991034944123457 2.1561305629984187
1.385111960376886 0.4893687097256894 0.8152840853786161 0.0 2.425058687182687 -1.4426316820057312
1.503464981281241 -0.5443683666779773 0.22369078528067973 0.0 0.6097489084253598 1.729400562356958
-0.45678739085306297 -0.8643912775972594 -1.603310564322759 0.0 -4.996422451508753 2.711393968167986
0.5002633496369288 1.5615775490368804 0.9870654132755711 0.0 2.952171357809008 -4.732714903958095
0.8452634727040063 1.720094607907235 0.08978728998328428 0.0 0.19886473447865116 -5.219126036436384
1.3284184365485796 -0.29171409391845793 1.0255936213631671 0.0 3.0703955379811494 0.9541284760955866
-0.3043683934265265 -1.9126735902641643 -0.5094516315482461 0.0 -1.6399057077966412 5.9280584110674415
0.33464020896328167 1.9731411074995386 0.020563448705160987 0.0 -0.013549293831877848 -5.995601674538058
-0.264363000993312 0.8896777432763435 1.8575667844834123 0.0 5.623313257681192 -2.6709838337442604
0.7400599322410708 -0.0066535102340248885 -1.829847315815735 0.0 -5.691552670470055 0.07941731047732017
-0.7952036424987184 1.2863915253065994 0.9637284258388287 0.0 2.8805615855319346 -3.8883039213248782
-1.0105571046698771 -0.7115961653415362 1.3333880003754979 0.0 4.014865575040605 2.242540684369437
-0.3843065548696244 -1.6343748458584497 0.862699582232713 0.0 2.570553599125792 5.074096014853784
1.0465949405484969 -0.21251304894337958 -1.2577511824094463 0.0 -3.93607013679402 0.711099301479753
-0.5143423523297357 0.04471809715875182 1.8171237766817565 0.0 5.499213496016294 -0.0782169650209853
-0.41190249712932225 1.5115530335549634 -1.1786505190384426 0.0 -3.693348984103813 -4.579214193052666
0.48379030097683307 1.893246394615855 -0.48885012112000087 0.0 -1.5766897732494216 -5.75044397321732
-0.33272798333879255 2.0074770614853548 -0.21818912360559037 0.0 -0.7461638774443415 -6.100961882341451
-0.13645189943000802 1.9841848970837157 0.4153269724798008 0.0 1.1977864073773323 -6.029489649982296
-0.06729249435554192 -1.3633674750988576 1.5903497808245148 0.0 4.803355290422392 4.242507269386656
1.3485144937500866 0.11635036032282524 -0.9025227034752197 0.0 -2.8460481040975028 -0.2980212592459772
0.6834706666926658 -1.1473080971713816 1.4635496621879285 0.0 4.414267896649544 3.5795269728230497
0.1795933759841423 -1.927771754207858 0.49767465607347505 0.0 1.4504710731111468 5.974387273554105
0.004228185160865093 1.5673907541408232 0.8038819865208245 0.0 2.390071236257398 -4.750552780197332
-0.489343920475881 -1.5579118706454018 -1.1743218839897023 0.0 -3.6800665254766636 4.839468633857165
0.9130955523699295 -1.3505087007516747 0.9389133236199957 0.0 2.804416203710922 4.2030499955949985
-1.185674630229929 -0.6941532630692844 -1.1579963749471662 0.0 -3.629971542651129 2.1890169695817856
-0.7395645233442435 -1.2309711425144483 1.3717527504472686 0.0 4.132588182705933 3.8362478388415537
0.24461563687098378 0.7284925684917519 1.9470086287587345 0.0 5.897766424267432 -2.176385561707138
0.8942391621613656 1.4937904216608926 -0.7618520094625294 0.0 -2.4143987152630753 -4.5247094461898465
0.7509788967100536 -0.8084985722360778 -1.5433061279558782 0.0 -4.812298256580264 2.5398866597069905
1.4346346085685366 0.25469015609725343 0.03481894952232443 0.0 0.030193848678687824 -0.7225182642307151
0.820415697400476 -1.600963349453139 0.3340515314349784 0.0 0.9483919283035228 4.971572514101771
-0.9026823486878607 1.2260354816154215 -1.0679935732772659 0.0 -3.3537970728593334 -3.703100815911816
-1.5108525750209074 -0.21413078054790505 -0.5724753019694807 0.0 -1.8332944517021355 0.7160633265973696
-1.51953212308219 0.2940666645406228 0.1708051156260868 0.0 0.4474687181929498 -0.8433454622715576
0.5010639322153287 -0.26890940593660045 1.961357318827169 0.0 5.941795518899293 0.8841520698581895
-1.2541902468629242 -1.1450888416643195 0.4866901385669965 0.0 1.4167649746121602 3.572717165776784
-1.3439583929078474 0.6588856200859279 -0.22206003652456252 0.0 -0.7580418112772044 -1.9627959654597988
0.9620666315119366 1.1868878844709043 -1.1508982048206051 0.0 -3.608190738778103 -3.582976034411535
-0.14462429413165712 -0.6748617720948611 -1.9667114151043699 0.0 -6.111521486476495 2.129820842433487
1.1781860315982173 0.9301744975973738 -0.6921334490157841 0.0 -2.2004666363857304 -2.7952485171251054
0.4166778738305756 0.9475581275121002 -1.734434229051412 0.0 -5.398776688395845 -2.848590354108853
-1.510236503047381 -0.20423162447751894 0.5651059359979919 0.0 1.6573846095234654 0.6856876701911155
1.290475257952414 1.163074535922793 0.16776084006746844 0.0 0.43812732911725044 -3.509904543444367
0.39346669649365024 1.89131572534478 0.5871703919913801 0.0 1.7250896067253059 -5.744519695834955
-1.3380631343042717 -0.7603515850964278 -0.6758244166552245 0.0 -2.1504222124186363 2.392147162728507
-0.6726561132830625 -0.44885301979363307 1.8394564815867513 0.0 5.567741617604938 1.4363107941127198
0.5195697381237169 -1.857068538356449 -0.6261225271158707 0.0 -1.9979114823468636 5.757433770018136
-0.7989384493928179 -1.6936675620243447 -0.5783332352807167 0.0 -1.8512695768792369 5.256036289443122
-1.2321427402445542 0.08644525046979347 -1.3197161208779555 0.0 -4.126210151434752 -0.20625713963537043
1.2202845348966775 0.27076536524883343 1.2819667752546313 0.0 3.857079047062451 -0.7718451994133846
1.499716493936402 -0.47435950713121866 -0.4360677779664171 0.0 -1.4147266413874426 1.514577697875835
1.1251352007068216 1.4625725238614502 1.1548075836071021 0.0 3.464486017494837 -4.425872571934523
-1.7136050779383802 0.2838060468182925 -0.631771721411189 0.0 -2.013931010602561 -0.8112698941555468
1.6792094562695083 0.6483864006039208 -0.6729078869355465 0.0 -2.1400721055129637 -1.929229344754081
-0.7448116877639259 -2.1041983132858455 -0.06643231558586855 0.0 -0.28035835652091523 6.511373837817718
-0.3699857841093252 -1.7621401714018705 1.3736263147753813 0.0 4.13547792898275 5.462477131227166
-0.949397189689523 0.22450336177716915 -2.0446112456228462 0.0 -6.346301863477142 -0.629422472869168
-0.5885026173842481 -0.9053591036487354 -2.0955924284584424 0.0 -6.502631996359889 2.8352195682710164
0.231740786244332 -2.3538821159943053 0.23958656630489608 0.0 0.658026549629404 7.277011272750467
-0.280733470399191 -1.3728764083777283 -1.934131213585468 0.0 -6.007522786008693 4.268827780323653
0.14535444724827873 -2.018460346778705 1.2800134143449056 0.0 3.848420698258444 6.248464525956886
-0.8143441232776637 2.1173449162964064 0.34080236934635655 0.0 0.968397534750164 -6.433685051441002
-1.0190545382904828 -0.9356597020729738 -1.7904745397116153 0.0 -5.567009920926394 2.9281341754774335
1.5418921582885634 1.2189098981818436 -0.36638447768110594 0.0 -1.2001401024649365 -3.678698643587461
0.6438104775988406 1.6880499447694943 -1.2587011290558143 0.0 -3.9363649784695336 -5.117282876914781
1.7641106166779161 0.08775868413301531 0.484176646259842 0.0 1.408044449850834 -0.21010474742414373
1.4038211993679028 -0.009327290212052097 -1.5642123290508834 0.0 -4.873193114576438 0.08760241483138187
-0.46663403279489446 2.0816247722949397 -1.0419611903338597 0.0 -3.271747534604658 -6.3241517972529255
-0.2368250916914875 -1.0234148067237334 2.1817122673443063 0.0 6.613415421197562 3.197228896473471
0.35184331046003203 2.1537069483482627 -0.9468413515909027 0.0 -2.9800693858566176 -6.545186609199767
-1.2101268903091598 -1.6820781084315144 -0.007878297915087273 0.0 -0.10080666991507492 5.2169725696051925
-1.3492842408124461 -0.33115949600977806 1.3750252962453966 0.0 4.139767805108481 1.0744777421566118
-0.9186609959462185 0.6976567354191066 1.9282600002526251 0.0 5.8362222610927885 -2.0803132851497805
-0.9030099239903145 -1.7277940238146763 1.1460368263753271 0.0 3.4375911208435115 5.3571571382871905
0.15011013037524953 -2.156353501449981 -0.3642134110073479 0.0 -1.193482682555704 6.671303973658566
1.8079786253972208 -0.10267345500030388 -0.028978285390769 0.0 -0.16550826494347648 0.3738417198804845
-0.49467398321417433 1.3912269241520778 1.7269434352449866 0.0 5.218899484164824 -4.207096418404834
-0.014286603834939291 2.3641959778166806 -0.008601685139935419 0.0 -0.10302488484647178 -7.190636089124013
-0.8466691758463675 1.4734839025214017 -1.521116249027827 0.0 -4.741042082725017 -4.459331530337763
0.6133860691760272 -0.34345045792610535 -2.2651205781866044 0.0 -7.02247788263198 1.112167093457709
-1.6283209486158643 0.7105502116970828 0.8392545709796385 0.0 2.4968653847079647 -2.1198502034350346
-0.2180536299574371 -0.23466374617995148 2.2800172800909753 0.0 6.914860677092972 0.7785804609545686
-1.792267844194974 -0.17275460044259097 0.14468672595240556 0.0 0.36702301013330196 0.5887405152830569
0.7598417072253253 -2.1060794067929565 0.3129492385432316 0.0 0.8829879110916711 6.517142075853306
0.3814273990147266 -1.5906344509538546 1.5692040669090157 0.0 4.735203048710891 4.9365671664809305
-0.47721070275124877 0.4067093099314391 -2.287626193799179 0.0 -7.091489735312362 -1.1881439167956467
1.2738636833037362 -0.6972241979108484 -1.5053928955596876 0.0 -4.692827549434112 2.196988839563335
1.487868040871833 -1.2460175624893552 -0.6376676436637682 0.0 -2.032010432419516 3.8798242474116167
-0.31794027066429753 -0.28240368878479927 -2.372159216973785 0.0 -7.350704175049518 0.9249715636345098
0.30667163942592224 -0.7160871145748176 2.2941484082549373 0.0 6.958192765930127 2.254830617737527
-0.38485020471811016 -2.2243523350203853 0.4045835172239859 0.0 1.1639778404342855 6.879817509372589
-1.7291094716739488 -0.6979018428510908 -0.3078942116500202 0.0 -1.0207839056800605 2.199066789066724
1.2930097948941348 1.6674967908857945 -0.33194560285272817 0.0 -1.0945357681046612 -5.0542581077924185
1.335541115581542 0.7448377270366549 1.4033500040602114 0.0 4.22662348577863 -2.2249904048018805
-0.3514191411931478 0.29323527814380407 2.3630106653482272 0.0 7.169353927818341 -0.8401839542873599
-0.8912760059485273 1.7971899767080337 0.9083695352958434 0.0 2.708801455131866 -5.451952940392912
-1.3262365910809353 1.4531705531602737 -0.7964746480376768 0.0 -2.518980697047233 -4.39704210454787
0.9329176788635289 0.741391936779059 1.9000129623519122 0.0 5.749604749631692 -2.21442413664382
-0.7388664484110159 2.11674638560067 -0.5433705011544213 0.0 -1.7428550225403874 -6.431849700082038
-1.4089609192464745 0.7293410108452094 1.343821097612506 0.0 4.044082372808676 -2.177470838430357
-1.278003883524669 1.1529903567591469 1.07065103400044 0.0 3.2064260068946697 -3.4765611077948493
-0.28332797903388246 -2.0748280492973232 -1.0549859949585825 0.0 -3.3116871618259593 6.4213120342904535
0.49417775251280405 -1.074841462777426 1.9477804362297328 0.0 5.896080274981388 3.354925040961036
-1.0004464203323111 -1.403934568834526 -1.4366943120456723 0.0 -4.482168280812672 4.364065397052992
1.5778183198611222 -0.9295091963261124 -0.1431322377761748 0.0 -0.5155531550953996 2.909274091673501
-0.3131874464185325 -2.355830995986589 -0.164304116168505 0.0 -0.5804751984525298 7.28298737317067
0.5067540657270956 0.18432556224819216 2.2697583752973847 0.0 6.883402482904239 -0.5062201384008541
-1.453425792014636 -0.8894004661869886 1.1764207147012389 0.0 3.530761130546932 2.7862835535247963
0.08444732515781828 1.0933336409693377 -2.109958478386823 0.0 -6.546684455902586 -3.293628076663656
0.001204145247232909 0.22570505856707632 -2.4353228680644348 0.0 -7.544390971219071 -0.6331073897032238
0.5635776444025149 1.4982791915403835 1.7248873147766053 0.0 5.212594538532598 -4.535364501948165
0.14952619888919333 2.041665955908313 1.15473073942622 0.0 3.4642503803373534 -6.201620958851172
-1.2470950278279476 1.7262614917515156 -0.3629120098664655 0.0 -1.189492029495653 -5.234455839272646
1.2419428034019708 -1.7680014238871102 0.012829073389395427 0.0 -0.037309004156290126 5.480450240694471
1.1329970937696778 -1.6778315632639398 -0.7974037532234473 0.0 -2.521829731319779 5.203950844070099
1.190441936096512 -1.1594435431007464 1.4150059021919754 0.0 4.2623654596297 3.6143512394812283
-1.2685532063092602 1.6472686289466245 0.4297595388264452 0.0 1.2411783011466906 -4.992229903109097
-0.7538679004734931 1.1382197350689884 -1.895229343384195 0.0 -5.88823299711611 -3.4312680580233366
1.2446562347624452 -0.22367675199093648 1.666841257981995 0.0 5.034600477443747 0.7448896329663363
0.795979813962975 -1.2546815304860448 -1.7924319811298435 0.0 -5.573012274343902 3.9063916825490503
-1.5362822681837156 -1.2807322729015982 0.07872273345251181 0.0 0.16474916830739594 3.986274411764077
0.5692910546265896 0.2784673917825547 -2.2741780784856154 0.0 -7.05025205628927 -0.7948992922053442
0.8313732343523389 1.2489725054410579 -1.7622840636974788 0.0 -5.480565852425088 -3.7708834679919936
-1.2503730589990825 0.5344653433510098 -1.6473484247297747 0.0 -5.128123976552424 -1.5798986107865693
-0.3332809184923469 1.418988351246521 -1.8751239265347683 0.0 -5.826581181428159 -4.292224839231876
0.8242390507488628 -1.6697917235936377 1.3353534129016302 0.0 4.01811682625929 5.179297253586186
-0.7928397645577316 -0.2635683076249448 -2.1555364738563014 0.0 -6.686446103082297 0.8672142211045654
-0.29070122319856523 2.1299670735629785 0.9183580483154624 0.0 2.7394305123801774 -6.472389989478892
-1.4466073410977915 -1.240747781254465 -0.8087965161555076 0.0 -2.556764819993851 3.8636648420213953
1.2014546782100675 -1.2470629824615207 -1.333607356910793 0.0 -4.16605954228687 3.8830299526164946
0.4854897519442326 -1.642295913549424 -1.65752928600564 0.0 -5.159342855903446 5.094983328352394
1.627399421750605 0.6885139400196567 0.35327766837943025 0.0 1.0066521425704968 -2.0522775601975964
1.341014670367086 -1.4699006598408755 0.6016215966383205 0.0 1.7681809488073819 4.566345673798114
-1.563412843609401 0.4625967184356639 -1.1963091529226226 0.0 -3.7450444680927353 -1.359518638055303
0.9467214262390465 -0.6363582487776885 -1.9713706170494372 0.0 -6.121714740141459 2.010347781298642
0.3489834994151266 -0.7879662025712988 -2.253388192672925 0.0 -6.9865013657218125 2.475242674755059
0.042458682923137495 1.2988470712396638 1.9558326866311486 0.0 5.920771922080239 -3.9238202392691295
1.655965389670812 -0.3545214226644732 -0.9087274496924728 0.0 -2.863195845129326 1.146115411100132
-0.15380005571798636 2.2646551041656835 -0.6163756340477189 0.0 -1.9667200152993067 -6.885401154593227
0.7461180187027718 2.168907195727797 0.3374274364024221 0.0 0.9580485454515625 -6.59179707526832
-0.856270598064425 -2.032980992436347 0.5178998432688611 0.0 1.5114542096175305 6.292991042191765
1.0373392145606832 1.124112614700295 1.5938779043753855 0.0 4.810863597864562 -3.3880095873648073
-1.6798328436524075 0.7869197390438973 -0.5756620584303611 0.0 -1.8418747619649856 -2.3540318699691465
0.22870754971330529 -2.222867050555577 -0.8820052355366436 0.0 -2.7812540960849077 6.875262991316369
0.08182491714572447 1.8231023499228594 -1.510828302266898 0.0 -4.709494833430839 -5.531411370399221
-1.042307947771198 -0.8169247042815104 1.8266654519052559 0.0 5.5246898807138525 2.564041838851381
-1.7033561426024482 0.20854344821555068 0.8420338380854884 0.0 2.50538780752768 -0.5804825450544113
-1.553784235109238 -0.3441645828393823 -1.0834697202762213 0.0 -3.3990304582391033 1.1143569061764032
-0.3116059085724794 -2.170527476812489 0.9614396900214653 0.0 2.87153727017011 6.714767450350412
-1.4020986516717848 1.296838098250515 0.08724178156429326 0.0 0.19087221703390445 -3.9176598679932364
-0.5439604447024924 -1.449421119980454 1.803644264728785 0.0 5.454097064889589 4.503546636787114
-1.3584912136729073 0.01584426816215741 2.0619270528271274 0.0 6.246962273088275 0.010409034925682556
0.18043890621093694 0.794434967605693 -2.513670326777279 0.0 -7.785685753280249 -2.377407972443926
-0.9607311392777824 -2.1932491175678566 -0.8433578356646928 0.0 -2.6630962120089876 6.785356078454273
1.9591712313606773 0.3618206568199716 -0.26585840683122924 0.0 -0.891994966000868 -1.0506469288507747
1.0626426274445029 -2.1886206680129394 -0.6574920361385356 0.0 -2.0930746107824314 6.7711613409973745
-0.7740364197108238 -1.8835651491338383 -1.5023964707080695 0.0 -4.684265566324337 5.835603342819278
-0.4557143859079772 1.1098609055166084 2.3911369327766803 0.0 7.256597953169573 -3.344770438560586
0.03254486698264754 -2.0909490576620593 -1.7087568541786926 0.0 -5.317140880209593 6.471617649427857
1.5806558205471883 1.163138131350383 1.1879082668798275 0.0 3.5664821140816323 -3.508163433162604
0.6384692231900461 0.9366297154905169 -2.319949409593954 0.0 -7.191573723603829 -2.81349722652914
1.306921646472101 1.0655095166865398 -1.6651553083437491 0.0 -5.183421696604274 -3.208751602701656
0.7610220889936306 1.9569686699651416 1.2149826135035078 0.0 3.649514939130337 -5.94271866536412
1.8928464549524748 -0.36719425557243435 0.9764997788394914 0.0 2.918125045848224 1.1851288230054726
1.839605127196395 -0.965426813810657 0.5329131822012966 0.0 1.5577137020562875 3.0198153636286724
1.301815231363618 1.518551449737974 -1.4120298854412898 0.0 -4.407125254537733 -4.59816099786265
-1.6927474982003692 -1.30134050000444 0.7212904515905214 0.0 2.1354375921193465 4.050010578489317
1.6455432748227619 1.084350306914436 -0.9336296017768541 0.0 -2.9399457281436745 -3.2665333863404884
1.1001478503060886 -2.065908232034789 0.9032754313139888 0.0 2.6935573204696626 6.39482131811526
-1.635357682025369 0.11390338088510198 -1.6324809014560082 0.0 -5.083214354636249 -0.2903230663629243
-0.42509314607605553 1.9903296401947264 -1.5700403990019558 0.0 -4.891719010786071 -6.045031590696373
0.41974287061477655 1.6046826242566312 -2.0916151688634175 0.0 -6.491307995062663 -4.8623119612987145
0.8311026922443555 -1.963800524093972 -1.3284833989679714 0.0 -4.150901128755669 6.081672802754278
-1.134426265856214 2.228763051594993 -0.25452776478766553 0.0 -0.857245642902897 -6.776269910488299
-1.3617867680342022 1.1078709309241317 -1.7022137829681754 0.0 -5.297074294867551 -3.3386674948964186
1.5897221395254908 1.3381605998291168 0.5564473005055222 0.0 1.629889195522163 -4.044930218591743
-0.2804172055910028 1.7546734869721006 2.0048655132971662 0.0 6.071963374881918 -5.322310691309246
1.6656249803320415 0.4820883734128249 -1.3091845440003018 0.0 -4.091714531551906 -1.4194893762665617
-0.8815303256706485 0.7252151214785287 -2.330227159999809 0.0 -7.223093991228577 -2.165121432226993
-1.8171044480917247 0.7585547375273041 0.27767370338721786 0.0 0.7749337781501824 -2.2673688675962254
1.9904857429433045 -0.4823994632613718 0.3427937395273302 0.0 0.9746468365350526 1.5384453402125249
1.332389348903678 -0.9116353821978648 1.8538659933691752 0.0 5.6088712495246575 2.8548453795952335
0.7002650336377366 1.1332413133831543 2.2851493831557 0.0 6.93155056468255 -3.4164745259365046
0.2960018895023841 2.559092994156817 -0.5327956902568679 0.0 -1.7106502436972673 -7.789340649011488
-1.332068281126585 -1.8886815676613329 0.7103398979267589 0.0 2.101853941175232 5.851294605488487
-1.8792515253461117 -0.8187964229706134 0.26450988036374723 0.0 0.7345623730975509 2.5701226800462122
1.0546891573846937 -0.3790777761298579 2.2442312468604446 0.0 6.806060982254312 1.221573738819035
-0.4768769663885228 2.5773683935609615 0.1875339280809184 0.0 0.4984890573608272 -7.84538846661948
0.9741040478727073 -1.4517310335397946 1.8507662120779178 0.0 5.599364700715789 4.51123503696251
1.3337200892592147 1.773265036564582 0.45120102461102174 0.0 1.307115178669901 -5.379328092547163
0.2206187055826117 -0.011877801241668033 2.663049177090552 0.0 8.090510664879007 0.09542832535548768
0.6772568644458237 -0.2555244441072767 2.571326332281663 0.0 7.8092109152730576 0.8426548180927044
1.9271416480710555 0.023163519162500822 -0.7204063350065614 0.0 -2.28602301480418 -0.012037973537580592
-0.9453585190035747 -0.25289151352149114 2.3564353697855434 0.0 7.15017363760587 0.8345800280438946
1.1838950896476579 0.07438374171333448 -2.1728300015998916 0.0 -6.740381300199024 -0.16912245787004035
-0.3028760596057548 -0.8575932145568099 -2.5365380945178857 0.0 -7.855817652840088 2.6891064270227742
-0.8958782460463596 1.7337784486854162 1.6777903592313974 0.0 5.068874568241329 -5.258228847246323
-1.6630237222069038 0.042056944900675707 1.6015844781153161 0.0 4.8351629414255735 -0.06998118212886228
-1.357309451184763 -1.4368559671505552 1.3680013556909392 0.0 4.118799706213471 4.465615513719601
-1.0916315635187932 2.0059719335924755 -0.9491169823775937 0.0 -2.987443124175354 -6.093004080267731
0.9533228331364226 2.2997795571832405 -0.5021580457174549 0.0 -1.6166893361893295 -6.994066526821853
-0.10115451082001621 2.403001503797609 -1.2125372244628378 0.0 -3.7953121811601296 -7.31063223950728
-1.5902489577453511 -1.0671375334476298 -1.329777751961756 0.0 -4.154870708785725 3.3317463773879488
-0.25144499159410033 -0.6482847398436086 2.630527720100755 0.0 7.990772396543439 2.0471897741986678
1.6591670956174753 -1.1189609338461424 1.0101748530721804 0.0 3.0214012794774185 3.4906807146973136
0.6209415984799561 -2.4397694189999957 -0.43544647227940564 0.0 -1.412095279571892 7.5413956366486525
0.9465743047440273 2.0670289234446924 -1.123001417227799 0.0 -3.5207197368409333 -6.280256405388126
1.857327408000584 0.16398454038062857 1.0513759755080094 0.0 3.147758736540936 -0.44391422083943727
0.09678848189128554 2.4977358196530943 0.6459925430458064 0.0 1.9045105764602404 -7.60116770408825
-0.7760635352848521 -1.415287281167463 -2.0397949863972427 0.0 -6.332383526653056 4.399467696575302
-0.275937439149321 2.2096227579132948 1.4283757740124174 0.0 4.303958690235637 -6.717569596174408
-1.9725394256417643 0.49224492763846306 -0.24121765865309575 0.0 -0.816425610219826 -1.4506379539898553
-0.302798667999315 1.0280219917246345 -2.4568684174844053 0.0 -7.611483100772934 -3.093783173548564
0.02504565857522726 0.5114925318591584 2.6551509934405932 0.0 8.066288159703722 -1.5096673730956105
-1.7757418371505538 -1.300777407480239 -0.3631799635689405 0.0 -1.1904650973909312 4.048283660987001
-0.8585254508037727 1.2649516893861916 2.118840645451195 0.0 6.421507441063415 -3.820409836352971
1.9232199416175335 0.8716607119297979 -0.17825820590190702 0.0 -0.6233387262364728 -2.614247361657883
0.28512360227005773 2.0466981601205476 1.7162604168675848 0.0 5.186856272831211 -6.217905105182645
0.6853334264002294 -2.1580745624284625 1.3524258368035602 0.0 4.071032003716549 6.6774811692773035
0.2969250309206036 -1.3940532196367614 -2.299294736495197 0.0 -7.128229042319913 4.334346120765599
0.5973952246743309 2.4772051799371804 -0.10085615569247336 0.0 -0.3859586341965145 -7.53820341396653
-0.0507511308457469 -1.6814323853155475 2.0319351058506183 0.0 6.154981619934031 5.215693483201257
-0.7584553212392505 -1.081715359772573 2.2410345267524647 0.0 6.796257137118363 3.3764543114206287
-1.4255785112603327 -0.35210579238468515 -1.8639744796420672 0.0 -5.793169281511926 1.1388548448542724
-1.3505581219129343 -1.6589793749705728 -1.0941442275251672 0.0 -3.4322192083783114 5.146833580293741
0.7796170732993316 0.6001178543505123 2.4663739169692844 0.0 7.487338123282957 -1.7814675018149981
1.1735246861837971 0.1833796626322255 2.166168944580985 0.0 6.566655999443008 -0.5033960548832751
0.26212476166487136 -1.38264082409806 2.2992568666785465 0.0 6.9748160302360365 4.29934607236839
-2.0277622865017375 -0.12339749241415217 -0.3373387628562961 0.0 -1.1112141397355104 0.43744193459662356
1.6629497620446287 0.058006300593988765 1.5238192322511817 0.0 4.596668984601568 -0.11889538417147497
1.8751180642127274 -0.8882511145515288 -0.623077272329932 0.0 -1.9875298638627423 2.783129454872897
0.2417195731790874 -0.3034475408835726 -2.689712722007351 0.0 -8.325580495985088 0.989627528670989
1.0347161765196728 2.2013947769949 0.7684873587204477 0.0 2.2801831915988005 -6.692335653889589
-1.2259867241132265 -2.1299128418650204 -0.26257075643816635 0.0 -0.8819122517731594 6.591113536879126
0.24708223119851158 -2.4626505932825182 0.9675407502392168 0.0 2.890649093622573 7.611568651994769
1.821119304586533 0.7436888257658696 0.8124132397160682 0.0 2.414897060875687 -2.2217774201779874
-0.37359758964781054 -2.5418509387327606 -0.7228471916689365 0.0 -2.293508743897959 7.854463836834249
1.258223796069387 0.5416760937052396 -1.8828591485616635 0.0 -5.851085634297779 -1.6022356793579071
-1.7572969815262758 1.2107921270979054 0.6254164797381971 0.0 1.8414069792226444 -3.6543108525915526
-1.9148029473994033 -0.4133298673155155 0.7927777819453641 0.0 2.3546781550425133 1.3266195940155359
1.3638115396835382 1.7940098597326846 -0.8492259644097773 0.0 -2.6810928534137233 -5.442949250122092
1.3981536638669734 -1.6041481623040423 1.149454905895148 0.0 3.448551615534238 4.978674748916208
-1.2625544371048651 1.0763901052275406 1.7077572089981297 0.0 5.160778252142812 -3.24212068145762
0.9660655837945675 -2.370531619237653 -0.07830228376981489 0.0 -0.31678940446200826 7.3290540354151235
1.6606813173290778 -1.4656004240324605 0.08548782397145895 0.0 0.1855294714031117 4.553770308092653
0.22751278731242133 1.0059573986503811 2.4698697149606867 0.0 7.498059193935567 -3.026114486212526
1.5878703118637585 -0.5959319381562981 1.4511080407324082 0.0 4.373675029165516 1.8866318451844204
-0.7702391992924154 0.5794220867923274 2.4258907083631565 0.0 7.363182396671153 -1.7179967901929336
-1.8726964363628862 -0.7587487108923489 -0.7904436218783852 0.0 -2.5008165190960883 2.3859656534382774
1.7074127091263447 1.4968244185678896 0.027866499016167934 0.0 0.008813798054135541 -4.5315275605705585
-1.8525319823138153 1.1467833812600772 -0.1215918414306229 0.0 -0.44955176868991675 -3.458005949333394
-0.27683946073418886 0.18349594870014158 -2.924288706990109 0.0 -9.293506914301146 -0.5193469358065321
0.4814222240865102 -2.9030041782981857 0.10716947959304825 0.0 0.26113145742000626 9.20877422986255
-2.0593840484867205 -0.49136284378487205 -1.2047524042288777 0.0 -3.8738222184524487 1.6076926990163622
-1.1233935126489716 -2.021338727708225 1.6254565660720128 0.0 5.046513000851923 6.429915335317617
0.13042150151522253 1.8537383658013364 2.3741013837701503 0.0 7.406113583049361 -5.783665724415228
0.10107617866973437 -1.1509944552329867 2.746184126854286 0.0 8.578854830235757 3.6867388603114932
-1.1392697846728446 2.2081567815470122 1.296592690917109 0.0 4.009990242749956 -6.90073202924363
-0.04621249725211493 -2.5833553829980933 1.513044497016437 0.0 4.692209361370233 8.201295829346957
-1.0091703633512272 2.5913720649510426 0.16207822127560909 0.0 0.4341944317157029 -8.108561141862564
-0.04076633451374946 -0.632650723432227 -2.9720382990952996 0.0 -9.444005472051835 2.053007960929742
1.1616568410716377 1.7769574655366107 1.641819778121606 0.0 5.098087050075366 -5.5416654424613085
-0.75365190242597 -0.5308817806803655 2.7421882588861273 0.0 8.566260536972575 1.7322496375030845
1.4976047184365116 -0.6023639873369576 -2.1268269207980808 0.0 -6.78004358630461 1.9575493423247399
0.00395961566963117 2.7567649186930843 1.1355427186106613 0.0 3.502388240527319 -8.629851164521048
-1.125811609324353 -0.5312404343942403 -2.541115841083954 0.0 -8.085811494389773 1.733380052744144
-0.7825019159710433 -2.7366411179248487 0.6219215044417101 0.0 1.8835419100225888 8.684426281632506
-0.5049340533336245 -2.86665601757973 -0.34108505195464167 0.0 -1.1516902553712354 9.094211036255222
0.2583101338627854 -2.232882257145028 1.9749460757382438 0.0 6.148044235671539 7.096664404327333
2.0207049959679955 -0.7216044744852417 -1.1995745620691898 0.0 -3.8575025444418922 2.3333749892071913
0.014856036835440664 -2.6014451946666517 -1.1481756773337526 0.0 -3.695502039691269 8.258311825632372
1.1956361977243835 1.2628900999800379 -2.1805378450692157 0.0 -6.94933124473015 -3.921412918994183
0.3670170199519111 2.921806158551145 -0.09557829705816862 0.0 -0.3778949012962652 -9.150032960279754
-1.671144037024376 -1.7214006409900366 1.081122423431441 0.0 3.330864766173929 5.484561721277387
0.9411610129300266 -0.29735494740914203 -2.7300150960321865 0.0 -8.681189678296784 0.9962129499858204
0.6168830458830632 0.1938878568939742 -2.8409361514362588 0.0 -9.030793897443246 -0.5521004552921862
-0.20292271158056682 -2.865434929782147 0.7048376944220641 0.0 2.1448795771326075 9.090362376102934
1.6141618157641895 0.8048983722447678 1.9539506757628662 0.0 6.081870321374379 -2.4779012271233705
-0.12922605076008398 1.310374616270024 2.725975043742743 0.0 8.515159252375094 -4.071076003055486
0.9240208840355135 -1.2256438295576797 2.4813393327516513 0.0 7.744109279898541 3.922020936608779
0.8321015467102886 -2.4778664485912674 -1.2559436905349202 0.0 -4.035168408415494 7.86881272767123
0.6360915487686168 2.76952183821539 0.5801211912398813 0.0 1.7517944631220208 -8.670058795723826
2.097303734710596 -0.8627858852670651 -0.16245745036770287 0.0 -0.5886865682595954 2.778354679443382
1.662689986744227 -1.8404136172544596 -0.8556314431229577 0.0 -2.7734525857396255 5.859670292717221
2.201363890716482 0.4199408789516663 0.4981580616055674 0.0 1.49346067942136 -1.2645809665376295
-1.4388181613191062 -1.6120010825422062 -1.6368785181538443 0.0 -5.235809913946255 5.13975300063554
1.2911407514907476 -2.4273676339231254 0.3464687695837198 0.0 1.0153619424683864 7.70964909002314
-2.1138442337873813 0.5337330323676429 0.6334054080229363 0.0 1.919737212435123 -1.6232343961778821
-0.7704736495449753 2.47150490875269 -1.3289639720174353 0.0 -4.265315862355175 -7.730760341181635
-0.29117282159060737 -1.5553260822781285 -2.5291934352815924 0.0 -8.048234107880981 4.9611230810024365
-1.5295473633552792 2.106933982504044 -0.6967424435401687 0.0 -2.2726616004055256 -6.58169505749537
-0.1795674268443986 -0.012338083279377663 2.9760022014731984 0.0 9.303202144009502 0.09788848070745179
1.6608557603348308 -1.0577180432562268 -1.7704338839187337 0.0 -5.6567536129668134 3.3927475431974874
-1.5503134964351846 0.5737934348317782 -2.1272686267481906 0.0 -6.781435768007335 -1.749497941644047
-0.6789761780709987 0.5142186284754551 -2.8120492115415985 0.0 -8.939747197349975 -1.56172832855182
-1.028619824371099 -1.579293193649165 1.9567595535684874 0.0 6.090723424406394 5.036663321992246
-0.4225622198826693 2.817390187558205 0.7420254286849501 0.0 2.262088963136386 -8.820931656001447
-1.3246856757404146 -2.4086719969224335 0.21583550287641476 0.0 0.6036282005256255 7.650723635777663
0.7737553273869163 2.284036233708733 1.647975861506079 0.0 5.117489973323699 -7.139891100761856
1.6838566263261547 -1.2152247688007083 1.6137890930826713 0.0 5.009739119022257 3.8891818368823006
0.7516773092427836 -1.7756241465780673 2.207731505914639 0.0 6.881744147280064 5.6554649484548625
0.8661204774282816 -1.87291800426191 -1.9690215600501837 0.0 -6.282668045471369 5.962118568179239
-0.49738346393709576 1.8014053215062382 -2.253871535314476 0.0 -7.180466509553654 -5.61872090830529
0.9919256267574972 -0.8619257976566255 -2.5478640836982622 0.0 -8.107080802378162 2.775643830215073
-1.7781141173869808 1.8608575770207132 -0.020179578529366155 0.0 -0.14025102007028323 -5.806104262078094
-1.0572406384606101 0.13868429097111887 2.657571238836775 0.0 8.29956214402014 -0.3781082453528316
1.174252012427117 1.5126652257696394 2.0915870730410178 0.0 6.515676734604685 -4.708661449003007
0.6758691255023991 2.718259161831055 -0.818217869640057 0.0 -2.6555313930921196 -8.508487596428825
-1.891031551508593 1.4816764115783354 -0.791452228907266 0.0 -2.571170665597647 -4.610990000167983
-0.37489852290083664 -2.185889304555395 -2.005384693485787 0.0 -6.397278430525512 6.948550645080844
-2.103337972768266 -0.05686122556631934 1.1603392122174505 0.0 3.580542552649502 0.2382178197717972
-0.37869112807232297 -1.28836000568055 2.5898142947665876 0.0 8.08600383052307 4.119691610597724
0.9713169319152719 1.755695990591907 -1.7106182355520285 0.0 -5.468224906998391 -5.474652905311645
-2.1410459250782545 0.4150494181975502 -0.8891829654578087 0.0 -2.8792012528824014 -1.2491639177978866
-0.14712673583658226 2.8893968519845634 -0.5925249094805736 0.0 -1.9441857354442103 -9.047884362125757
-0.6689319120414087 2.1436856845146584 1.8873397802477854 0.0 5.871924157155486 -6.6975301443228314
-1.4233890759956862 0.049445087758403554 -2.2896157197074665 0.0 -7.2931260729540925 -0.09684152062882165
0.10367939474028383 1.4169297218162895 -2.6745130084307736 0.0 -8.50625657901996 -4.406919494039826
1.7994870798989264 -1.161106741312712 -1.075665145129523 0.0 -3.466961228401589 3.7186110586584116
-0.6951151961381238 2.6828657129783164 -0.4128112818645776 0.0 -1.3777590798034829 -8.396933491538764
-0.8507655488857393 -0.017756194734244814 -2.687129334873493 0.0 -8.546021084851935 0.1149654424937151
-1.5567612153506807 -0.8857259064510603 1.8105395035082883 0.0 5.629862803862967 2.850657707610742
-1.4045225096211809 1.6015390388188553 -1.5280133046773936 0.0 -4.892685357377619 -4.988776526347458
-1.0206649096813576 -2.3642258621848464 1.1528391206332007 0.0 3.556903545138379 7.510637011354487
0.5396623420288605 2.1746609804144406 -1.8573766538674676 0.0 -5.9307823723185 -6.795158985812166
0.2957385398817928 -1.014090910086101 -2.8321149922488758 0.0 -9.00299111051125 3.2552422718134526
0.17454998492305884 -2.8771022881923796 -0.4566398155020921 0.0 -1.5158991310575858 9.127135896798823
1.9653107850268257 1.3575216672924786 -0.5962888980492321 0.0 -1.9560491844497068 -4.219675454239202
-1.8681636499065353 -0.4237056591280035 1.4074750794057522 0.0 4.359472590384053 1.394448810149216
1.6367546249250944 -2.048177706204602 0.23515276945250588 0.0 0.6645129250062624 6.5145072109153865
0.8665804312081673 -2.529443882061862 0.7801657882740768 0.0 2.3823008614414256 8.031375987535453
-1.2546749604243737 -0.8147622811388688 2.390725459553161 0.0 7.458509830199907 2.626992482602794
1.6938289799379396 1.7849799379463904 0.8276153673879553 0.0 2.531853829491591 -5.566950905101634
1.154414554034322 0.40555903412373495 -2.5632852454901274 0.0 -8.155685670109868 -1.2192518483405632
1.5495918686467274 2.162059459514108 -0.025021108806789143 0.0 -0.15551069647659227 -6.75544114452072
0.8687911854650673 -1.340127859304001 -2.321242811170807 0.0 -7.392809262720326 4.2828550422562595
-1.7106664108155218 0.6079612830007404 1.8493443559538103 0.0 5.752169070142978 -1.8571891625354267
-1.4473847452243445 -1.0658195768507326 -2.0829664302059814 0.0 -6.641802812188529 3.4182821931868714
-1.7345982309118724 -1.7878418837338839 -0.6343597858117178 0.0 -2.0760421194243213 5.693973168941368
-0.9999241958096101 1.405318839979763 -2.301951815574917 0.0 -7.332007339881684 -4.370323977856957
-0.6302404141642203 -1.8288784559702214 2.1511899141409536 0.0 6.703534708419895 5.823313434780611
-0.12576977473691892 2.3636023786527462 -1.8102429300452978 0.0 -5.782224926193536 -7.390669998170589
-1.3226231252542662 0.8321293266047052 2.3170393491309875 0.0 7.226263797179036 -2.5637285436859334
-1.2234202235392777 2.256279306165746 0.7630946199045737 0.0 2.3284954548304206 -7.052406006572836
-0.9293926937209571 2.1088718113121847 -1.7461285719550244 0.0 -5.580147421480182 -6.5878027628795435
1.602865886315368 -0.4170115028783512 2.085247315251691 0.0 6.495694901007436 1.3733499731432153
-0.9819541454181286 -1.0481972204925385 -2.4324926738444512 0.0 -7.7434498262137605 3.362739536189208
-0.9565489617284219 -2.6285482789649475 -0.0800038329401847 0.0 -0.3288068508196695 8.343736117603349
-1.8293590098651855 1.197831473265838 -1.2863182555146293 0.0 -4.130903848661357 -3.716359240877773
-0.7916610953884835 -2.449034030717642 -1.2940261133318205 0.0 -4.155197699848173 7.777937871674835
-1.8408403477322761 1.204780277779986 1.2694690540434612 0.0 3.9245011725722514 -3.738260685714558
1.5626676566015878 -1.921507828256765 1.5086485751301244 0.0 4.56850228625694 5.9753512666593025
-1.9043729249551693 1.0023302360603414 -1.7623306267016958 0.0 -5.5028898530947075 -3.027188303512654
1.6193611000799868 0.3841465339709518 2.392593824933297 0.0 7.290182459429325 -1.1237917687955579
-2.3323139719143327 0.4796277512891134 0.1828271883151385 0.0 0.4862791141026043 -1.4177798140314697
1.7209612190365877 0.65957596404339 -2.168946652563878 0.0 -6.754866461294905 -1.9718429564717688
2.0749305848842834 -1.5848191019007711 0.6278453838880867 0.0 1.8564965567117941 4.938681822191088
1.6350367054726735 2.206888100551017 -0.7236848895688901 0.0 -2.3048846482091903 -6.736039341462284
0.21637989482897838 3.0469764361304117 0.5437342393843434 0.0 1.597517129660571 -9.322683443197036
0.056591207886157305 -2.310164543245171 -2.2570686912678974 0.0 -7.026195489437386 7.172030897654314
-1.6185795312068465 -1.5444922989018743 1.8717340831690301 0.0 5.68644780224422 4.814515014129203
1.1410509760515581 0.9653981902415212 2.6974580969774515 0.0 8.228863950071382 -2.9134740017703686
0.8895224342115383 2.6295654311082965 1.2626936943487896 0.0 3.811203660955663 -8.037468938468812
2.194561411095804 -0.873417033681591 0.9543410519497966 0.0 2.8617814276787414 2.7482645936838868
-2.1706937434600286 -1.120940154996105 -1.0206169753489713 0.0 -3.219142822939266 3.5103918542053543
0.6299130659551326 2.6009522226181656 -1.4994963534710426 0.0 -4.693619334992676 -7.949368456843081
1.1966993534402977 -2.3558401418086983 1.450195391972472 0.0 4.388524092251801 7.312666724404688
2.195288116499329 -1.4314389425794112 -0.13770870911275054 0.0 -0.5006555371258048 4.46642209945835
-1.9469750829054122 1.8248500497905862 0.575676085262841 0.0 1.6958665338135914 -5.559738673085347
2.3692447970853143 -0.05826421510529467 0.8052281370046193 0.0 2.4026606119261853 0.23839730844342225
1.9883056450107943 1.0532285501558636 1.5914998950303154 0.0 4.8236026951835385 -3.1839049467125915
-0.060772051347032244 -3.180968145051019 0.03305157038693113 0.0 0.02511782630721915 9.853247747102646
2.2025113941708643 0.1306549641030529 -1.1977065162906633 0.0 -3.764404073638362 -0.34328756909605435
1.6211033155874546 -1.664939000750822 -1.7452772373544314 0.0 -5.450382221335643 5.18537214630937
0.785331914526273 0.9821060426808766 -2.9242170322946874 0.0 -9.080354853653416 -2.9649177204063473
0.5061735952340503 -2.9765664582910274 0.8869589430248089 0.0 2.6543109424552314 9.223892005509445
-0.48440699391592246 3.1056342996278237 0.3018887346011006 0.0 0.8528713323264195 -9.503291850920373
0.15193950805202383 -1.836414244769632 2.6850965731239254 0.0 8.19080263983771 5.713346895808632
2.129814652320929 1.2141054009376042 0.8993637481410445 0.0 2.692505516321026 -3.679247090575656
2.1598781620999654 0.8941981225666794 -1.263183769763707 0.0 -3.966009481451852 -2.6942479664901313
-0.5138712935257009 2.9016987877301297 -1.181588339115787 0.0 -3.7147759736465256 -8.875371468451767
0.599578478253988 -0.9088110123253641 3.007137661644931 0.0 9.182371796151003 2.857243164410857
-2.0536761238237777 -1.748539580141928 0.2499916564700237 0.0 0.6930794802559641 5.442779536014968
-1.2839581639126194 -2.203205997755268 -1.5900316427273615 0.0 -4.972378796391692 6.842703993441587
1.6844206398447503 1.920157606032914 -1.370725779711879 0.0 -4.2971328811468235 -5.853192013364075
-0.8265223239055812 1.1550377663979843 2.837420926151255 0.0 8.659811519763371 -3.4973769919032858
1.9915032846607064 1.4355258677362404 -1.161528379765787 0.0 -3.653011069485667 -4.361003901367514
2.0487072163667377 0.47939853733952736 1.625605357649575 0.0 4.92861390648693 -1.417074060974771
-0.6969417509366738 1.3194547678362945 -2.7951566566731927 0.0 -8.68297609569367 -4.003619310697065
1.7960485776788582 1.5981834477695085 1.4769747605585006 0.0 4.470978154363565 -4.861828936279261
0.7588614179955638 -2.298549902959963 1.9163094186544147 0.0 5.823695903108039 7.136269252699702
0.01625262441086715 2.143491951242749 -2.3881934809466445 0.0 -7.429930608054192 -6.540841683387636
-0.2687621131814499 -2.746231322711769 -1.633040032203626 0.0 -5.104802247893569 8.514686800966933
-1.6381174227238684 -0.5893045267156026 -2.260794894306962 0.0 -7.0376685223372135 1.8734780870175358
0.04931360408730521 0.5200605168696595 3.2291616935838396 0.0 9.865986992714902 -1.5422728824105383
-0.41476297374144583 -0.24755140381126334 -3.142433477347806 0.0 -9.752246435279632 0.8212152925338275
1.281518738028049 -0.06063639338429959 2.733662617110075 0.0 8.34033818973286 0.24570127957809998
2.042673569066355 -0.5020488766602562 -1.657585705145745 0.0 -5.180378728901431 1.6048166820201288
0.5972156326048754 -0.4489803368944335 -3.0895638146844964 0.0 -9.589459981406971 1.4414178826804507
-1.3649676952909233 -2.5549815901617667 0.7111314800264759 0.0 2.112935647946525 7.925826116075231
1.7990854995279697 1.2626996775499237 -1.7830310222961752 0.0 -5.5666266696892475 -3.8288695691339765
-1.7972764438073285 -0.24641415743905334 2.117729339345947 0.0 6.443870743970824 0.8177136945514353
0.4882544186551917 1.572600488420137 2.729803123626145 0.0 8.32845475363086 -4.78305863546282
0.3646996044320365 1.098961135231635 3.013849738888122 0.0 9.203038378790211 -3.324716235756072
-2.3870416597806665 -0.5020802490946156 -0.1534972061903783 0.0 -0.5492685473432792 1.6049132781980016
1.6072307310997227 -2.2505898943231504 0.9055601820661872 0.0 2.711584425746908 6.98859969438593
1.120783465685571 2.7782102228342964 -0.20539652669975866 0.0 -0.7090673037288724 -8.49514839607784
-2.194389147944178 -1.0076951775537106 0.8465520750823422 0.0 2.529897613277327 3.161708935342506
-1.388648369271312 1.4634172572990733 2.1333447715971383 0.0 6.49195088509161 -4.446881892105394
0.8811632282030757 1.5854195555775479 -2.5564909616418423 0.0 -7.948120978447582 -4.822528728128242
-1.8798011666181895 -1.615574950950531 -1.1148726072979986 0.0 -3.509357273147153 5.033379525002946
1.4584099672464783 -1.1855399003003533 -2.236444494655508 0.0 -6.962693290607712 3.709295401710935
1.4780165170029789 -2.329002711094829 -0.9623800389093747 0.0 -3.0398304556979197 7.230033888163879
0.3376586588574302 2.691375632291283 1.5757813893114145 0.0 4.775205189369061 -8.227783439391795
0.00033150949703700337 0.7851063596636905 -3.1056793946399783 0.0 -9.639080084522833 -2.3583528550953914
2.126803664193139 1.2726384985955022 0.32811892362413325 0.0 0.9336344626429728 -3.859471342479648
1.0374426978733413 -2.873647626881136 -0.28000300039728 0.0 -0.9387817122830958 8.90700343921335
-2.2029995323008356 0.4637268969771694 1.3101551597542493 0.0 3.957338197469672 -1.3688208542690217
-2.2361451723987598 -0.9549625039533968 -0.3577426619780794 0.0 -1.1781432515194976 2.999344272770585
-0.7116022201040324 2.701283404587905 1.457839887500584 0.0 4.412061604238431 -8.258289613191614
0.5531469756332336 -1.8928063154057977 -2.524752441155762 0.0 -7.85039761611035 5.8869788946329535
1.0441442551153386 -2.8664940678248962 0.42640410253393496 0.0 1.236255946060721 8.884977527704326
2.1243927279106387 -1.343332275777955 -0.7014942462872606 0.0 -2.2365593374922654 4.195140401625567
